12.648868 46.947376 99.522654
87.322705 50.643610 3.004854
7.795846 68.705620 54.409699
28.433060 25.907655 9.365616
47.450565 76.005978 11.241353
7.419764 48.734427 66.025220
89.388201 71.602957 95.367381
46.708727 47.818194 0.044648
51.180780 53.675392 99.584804
18.313140 33.416643 28.752587
60.831926 20.167756 74.639558
3.796671 63.895501 0.990811
95.729641 70.873294 55.353719
92.604156 22.856122 98.569504
51.686391 94.420163 65.738670
0.085966 72.581643 63.370493
0.262617 51.956567 14.378122
44.997002 37.184247 10.658709
2.051529 12.335069 71.137920
11.126145 69.125908 99.347224
42.233073 32.076640 79.192056
86.773702 34.297603 21.197264
18.980091 75.267094 54.358872
62.718075 45.110230 67.925076
16.985271 6.805269 94.785186
61.935204 0.468605 73.727015
69.356042 71.690909 40.337746
46.705767 29.540058 34.751319
45.363105 0.020739 11.930563
76.546363 0.780385 76.153148
36.692467 41.710647 32.266772
22.759625 88.405816 70.396989
80.250114 64.532313 22.029621
76.154152 67.926483 69.980717
84.318041 98.619036 80.301702
10.449097 18.641532 80.007370
88.619251 82.764425 46.596892
98.584573 46.802633 62.104450
80.980700 99.822570 52.711244
55.125938 65.071904 99.482394
99.909716 26.716993 59.314457
17.847052 71.302320 12.629778
37.655151 14.534568 6.383102
76.156363 42.328893 0.278534
8.675839 99.872224 40.888685
60.490812 92.761437 3.035711
88.169504 18.864676 79.737045
50.608416 12.883002 88.647944
56.718866 43.528459 30.227606
9.061228 21.064951 20.301994
50.529040 89.400204 52.463516
71.403860 15.256386 97.962890
10.004238 39.237100 45.703517
57.158940 21.140612 36.542574
71.481014 39.734211 77.102196
50.607912 26.750053 93.924883
37.269855 58.773888 16.186085
3.556898 63.953083 35.187670
32.158851 5.325282 44.552708
72.988952 44.393145 38.469179
76.910616 86.296028 12.899217
65.803611 78.299357 79.488133
0.318199 82.920443 49.289645
85.082175 27.997449 88.339885
91.149497 10.613185 64.891511
17.103274 23.031647 0.572729
7.475038 43.480534 7.377323
32.676396 23.148003 88.075287
73.932237 36.780506 15.692931
73.756969 5.111485 12.136424
6.683808 27.653647 63.845846
32.742528 42.215914 75.069308
89.049755 93.894914 66.516533
71.152411 88.657693 57.717194
32.577892 13.776802 26.254627
74.058123 63.554454 99.645962
8.617117 8.930279 1.187796
41.248071 0.149025 97.605116
30.480366 67.491611 0.789592
50.251800 62.706803 12.584596
31.749314 95.574938 15.859728
17.381779 64.200193 61.568036
0.130248 62.062526 84.487972
39.061370 12.368660 68.669853
61.260397 31.792298 92.039309
99.023623 32.323652 69.933358
0.149979 24.193252 38.047471
46.523929 64.116682 37.382788
10.310199 2.130458 72.841059
34.051070 78.899353 60.322370
72.413759 92.692125 78.864227
20.691472 15.133048 59.953902
7.577946 31.095240 13.063455
26.978332 55.539818 57.313979
3.711994 76.943367 32.583842
99.948569 85.153203 87.741824
85.685263 76.342367 73.379612
34.344389 71.894567 27.065069
23.568728 15.671438 12.581784
17.595926 54.159026 79.967887
8.516173 28.949439 88.822193
78.396425 35.873894 54.720870
98.814125 80.861141 12.961454
0.525345 12.027455 97.934734
36.733691 69.399614 97.319669
23.274450 99.686852 54.766825
72.394811 51.457032 67.787598
47.667968 7.907973 61.981122
67.545241 9.331177 54.778289
22.986223 54.202440 32.246524
92.086863 33.666905 9.057151
73.555892 97.777724 27.601855
97.346136 59.099785 1.067642
91.596264 57.179679 37.722471
87.456651 84.786955 96.747306
45.576431 94.521290 11.212765
75.635025 1.464320 22.950357
88.481402 48.094759 83.194473
65.792078 34.578801 57.275531
43.355592 21.700365 74.246144
10.494459 42.412439 29.910967
48.360876 16.631203 43.287925
45.290115 37.432637 88.899062
8.447902 1.040370 10.860943
34.609699 97.728485 37.736603
64.948148 90.791837 38.687701
65.376644 78.288896 15.999510
38.699261 91.036273 56.901052
71.913639 9.546145 70.627209
83.782669 88.620285 74.920586
33.217759 68.174925 75.982429
21.365637 75.878953 32.301489
85.490143 20.439249 49.283630
41.563643 94.435036 99.251162
26.120692 0.049849 67.409957
49.151093 91.331623 23.481642
0.963875 99.729475 84.712405
86.675746 19.434055 0.331503
73.760439 89.214059 97.036964
64.837368 77.263360 66.015692
74.131839 17.134139 83.235735
0.128029 88.642028 97.041622
23.108432 24.458067 52.010266
97.749879 34.718009 98.673471
40.867043 25.632150 57.865991
22.121523 16.595794 99.890863
3.760543 52.974000 36.489500
92.790819 49.944472 72.106517
0.093221 73.533180 89.716888
60.032213 91.847387 58.119240
78.608642 78.263814 27.972637
86.668462 54.811167 13.182772
67.923706 57.542413 8.817960
23.960019 76.880093 5.361720
11.532155 21.351830 31.024313
84.209862 88.344341 0.012899
22.165296 36.061311 90.602975
38.006853 48.653322 9.176999
87.733079 99.689807 31.732256
66.210227 20.223647 53.444064
70.763866 34.234724 34.628875
75.116365 20.198717 18.177417
21.974020 73.192116 88.377781
25.047188 3.356733 23.058432
44.817559 88.188982 80.876144
63.078648 62.159480 87.976328
76.518330 52.870983 99.796803
25.064676 12.197081 36.971452
9.703877 74.089637 0.337699
22.471967 90.738359 21.743982
45.999098 12.272760 21.973477
87.793926 79.231900 60.201415
41.788006 46.658842 67.637744
66.386489 11.354197 5.874942
51.130358 96.600215 87.924591
20.655251 38.706217 11.029102
25.287156 27.711074 62.646054
0.324111 20.403972 13.786318
36.858118 2.420144 55.207097
35.942579 52.820409 89.410148
12.392353 97.026159 11.502472
13.069833 11.116186 23.325939
79.438596 46.286050 60.699811
35.978911 89.814533 30.493379
49.552899 69.668181 49.802719
52.158428 7.345112 51.157414
11.619252 37.930740 64.461242
90.095730 99.089248 91.763724
68.125629 38.938003 87.763767
50.310577 62.874025 0.521289
36.668385 59.602130 40.853127
89.123978 11.714345 99.941348
40.240925 77.938528 76.021934
32.024182 89.061331 76.295779
11.353600 70.675917 42.322158
17.900323 31.490773 45.445958
91.481691 2.892717 23.060731
57.894539 76.884990 97.282478
78.030633 66.215024 11.665692
99.967544 90.737450 62.189417
78.862824 57.372444 82.792627
61.986401 56.804181 71.540170
14.538060 52.590846 12.653499
72.688135 61.584817 36.530597
77.715470 67.877567 90.232542
32.075060 36.494209 97.751388
16.373932 0.131495 35.122148
29.980250 58.090054 81.482039
19.664493 61.879370 98.928599
49.284448 17.837899 99.635126
97.051430 25.869579 79.811557
29.082040 24.767977 20.308836
54.376190 9.497550 2.257774
45.064893 97.750545 45.986024
45.810260 1.680290 73.847092
78.076581 19.042545 34.994367
0.288881 65.173797 71.189532
52.624773 51.896404 77.881012
83.694360 44.362682 20.428888
98.823472 89.994620 78.528521
97.179181 8.668098 48.166586
61.907379 44.834825 94.363280
70.723061 21.981931 0.812461
84.070181 21.556374 24.077299
12.317532 31.721679 79.312697
0.646038 87.631080 74.478194
97.757820 99.528652 39.725258
30.823426 22.119390 32.979354
90.497803 93.564834 50.717017
61.254692 25.775361 65.190283
75.449403 90.267579 34.896959
80.731464 10.037996 78.418791
0.951636 32.851161 43.736105
32.387432 15.270272 98.908370
70.040724 58.006782 24.844628
50.031772 73.000434 31.242721
88.228292 74.236972 8.334589
15.571735 8.162425 52.993514
57.513426 43.641400 10.308242
99.439030 38.780192 50.339588
74.786105 15.341722 61.707111
99.819986 21.190222 25.193330
31.008204 78.351273 35.836067
16.329124 9.937549 82.454853
63.380102 8.560947 98.617642
11.209592 86.232841 88.033138
18.107413 39.033319 37.516235
83.896572 68.590896 53.397453
92.949308 54.296770 98.259647
25.115359 42.154811 1.887079
0.498570 38.139370 91.352993
11.490717 95.200011 31.628822
44.086911 28.109856 20.492865
43.353380 20.157073 89.468675
92.461377 8.101046 32.610574
36.870361 53.607816 51.145324
55.112539 14.186870 58.653386
54.819559 80.404015 49.923348
66.002071 8.183382 39.472428
45.220819 78.097428 64.352787
55.153880 1.941313 9.149661
3.405672 82.559858 0.401562
90.718239 10.303078 89.720194
45.226793 73.898965 1.473590
91.865113 99.711321 16.311352
54.038662 62.723374 69.032193
54.471622 51.022798 36.796442
50.404843 83.397331 41.085547
53.779108 30.091980 43.989809
52.390282 68.249359 90.182428
54.914178 30.764368 28.200135
23.720405 66.674081 26.362456
85.811543 0.129335 54.827705
47.862561 11.899496 31.955574
90.377548 63.797365 25.447421
0.518537 62.009621 17.084743
64.668596 89.969599 12.332697
0.240266 3.188188 24.082030
64.999774 38.010113 26.767473
8.333841 32.332084 27.625933
21.309479 92.479032 31.622198
88.843792 76.890186 29.362473
16.039207 88.146633 62.781053
52.485130 44.370619 20.144048
55.363130 19.328005 18.141788
13.638879 54.355944 47.490853
24.605481 59.557081 90.442236
93.934127 80.360943 81.282788
92.891907 22.474419 40.148654
59.517696 31.122175 7.644561
8.033004 99.693429 57.874643
8.270929 10.633340 91.494488
75.787831 96.269581 13.126049
20.543266 5.683981 43.726344
0.041130 51.633849 57.941991
94.359306 40.378316 41.288164
82.130884 32.710107 64.713734
46.077388 37.581148 71.770805
77.825308 4.182099 38.415686
13.528524 91.133073 40.759623
27.970749 44.795834 38.323277
10.283136 90.259893 99.912843
32.791601 50.899063 32.048590
90.215711 39.073406 78.166292
36.599606 82.486683 45.251565
29.678345 62.657566 48.244088
76.622432 89.684628 67.333679
87.729505 48.676162 41.414904
34.210727 2.242575 90.885716
59.014673 64.311817 6.568350
38.566889 29.831189 8.363797
98.929992 46.808446 87.392811
65.393467 99.564263 80.286782
26.921149 99.998399 90.447063
60.128093 99.899101 63.957148
32.190580 7.754726 62.132837
92.014115 10.799927 74.758648
59.109700 63.143156 26.931814
77.898575 78.569284 38.015454
60.911237 44.397014 0.989415
97.000811 61.590799 60.880564
6.263293 92.545238 20.254179
90.234563 64.020178 88.838698
49.326246 29.043448 62.693671
11.922392 12.286639 71.364960
99.785434 1.941207 99.824967
52.498940 26.852663 0.068248
95.232005 89.784361 32.657230
98.992886 63.430955 79.362607
9.168533 41.075478 55.450045
2.317553 18.403621 51.924678
32.087886 6.194836 72.276051
63.024552 82.209088 24.723331
21.512905 72.232096 42.674490
42.112154 58.392767 71.388850
33.361454 16.157281 49.811531
8.401699 26.204039 3.875461
35.464869 37.215317 64.629250
22.321485 80.305124 64.730594
24.206510 78.760776 18.867902
6.047437 45.254417 75.095032
60.262999 70.539178 82.515552
67.799311 7.111129 24.645997
7.329690 75.465577 13.704016
17.392883 13.246289 0.740421
23.838332 93.633866 46.507924
25.002623 8.196975 6.395001
72.692073 52.344020 44.541202
48.874970 38.271655 52.649807
89.246805 97.752360 0.050992
0.690332 22.355847 98.265130
71.660035 70.687563 52.430166
22.392069 93.709616 0.111787
78.712210 37.422382 42.679258
37.914489 0.596915 18.203338
76.446633 32.087253 6.721825
33.148379 28.012827 0.468758
78.887216 49.179567 7.907647
99.729854 53.870573 30.587911
62.064176 89.898676 77.354586
89.567718 80.209391 0.089972
54.572608 43.560656 73.032398
60.865272 81.960727 38.661466
91.821395 20.888509 89.081888
47.658198 17.894913 4.537477
6.349276 91.818994 0.659645
59.937149 93.669382 21.787530
59.747505 56.057151 59.492876
45.676486 57.240376 55.681038
16.108095 90.998258 79.313666
1.126295 1.792802 75.958351
0.185478 19.806000 61.287210
1.095722 1.465629 87.712697
66.548023 80.028565 92.383536
39.960804 68.764807 60.446444
7.844476 78.933027 82.632036
99.491895 39.455917 6.733283
43.813340 0.041750 35.659219
29.210002 61.856315 68.566802
46.383928 11.544695 79.559737
87.593883 18.363218 33.189296
86.134723 70.207984 42.570732
92.042155 21.505408 16.752518
79.416180 65.439201 0.440358
60.184614 30.372236 77.465932
56.672513 73.026338 14.251980
66.788464 71.083599 73.146579
15.519544 73.198262 78.967942
38.475601 76.140220 18.972801
10.415040 0.311562 91.611985
88.556307 99.998477 58.642098
21.279198 40.632249 57.215469
61.444597 72.678863 34.043035
90.455838 41.813403 0.855315
28.562147 49.757124 65.247719
73.757984 49.039111 79.469443
9.558661 50.929202 84.107347
98.801291 72.164019 23.611652
72.203602 58.224034 75.094928
95.159846 25.372150 49.113329
1.211260 53.953553 73.004006
19.456987 49.454600 21.144551
11.308379 59.897080 55.455620
39.585530 77.761653 93.725530
71.387826 97.928550 63.968271
2.658876 83.278060 65.538847
78.598833 14.667776 11.257540
55.935670 6.018532 81.983546
81.878841 49.726329 89.889342
7.514226 79.256645 44.192848
38.776355 33.074219 38.648246
4.105233 8.525725 58.024488
16.628670 23.595883 61.479073
31.277663 90.372462 66.655079
27.451718 7.807523 80.488575
99.005188 11.632224 16.615392
28.009600 33.514538 46.259269
79.868626 39.003263 96.860134
8.005014 49.409465 23.999559
99.866902 80.636231 45.748274
8.234462 27.745216 48.043352
45.721004 48.733469 89.542125
60.464965 37.722338 46.326796
99.980701 12.009734 28.059863
85.132941 29.245326 54.316833
89.778968 32.209688 38.660508
6.623615 94.868993 91.336079
47.776622 57.519301 45.201395
35.997167 24.967596 79.184741
44.246226 32.978620 97.255190
99.767388 59.476620 41.982396
17.810720 47.079494 87.705126
81.098243 92.780939 87.689625
39.931334 55.338817 2.390080
80.403241 20.717509 99.637965
12.019888 57.300471 66.243736
37.485461 73.060507 8.357680
66.904453 32.984442 70.297613
63.079329 42.931610 38.967553
27.586913 34.174457 27.435872
99.421749 60.061312 21.942562
99.261912 71.502924 13.183051
7.939728 67.464156 65.665767
50.461880 21.929697 50.706382
80.224714 85.457443 21.599634
80.676068 8.244650 66.626335
2.282732 73.233555 98.878367
85.635098 9.919611 1.464506
78.148255 32.150345 81.914385
53.851676 84.979112 99.576720
17.951549 89.738192 9.758341
40.174820 29.534889 88.135813
99.979643 8.100395 63.307678
41.640382 18.609008 28.949178
7.563394 7.023152 41.975986
38.147099 39.027605 23.307313
63.565548 7.056735 65.864244
70.990408 61.961050 16.471607
52.290923 23.088896 72.038423
76.980122 82.766846 4.139036
70.330071 8.731447 90.356005
53.197824 87.072659 85.089540
20.199276 52.473395 98.476851
83.961492 47.444713 29.166780
34.234092 99.492736 79.275394
46.779398 82.614015 17.805769
16.154979 25.513506 98.033590
46.877088 87.403148 62.074971
94.813355 92.912639 7.875775
45.642087 47.032665 27.341663
79.756208 5.818636 96.294111
7.740448 79.665089 21.925350
25.551501 49.149284 73.961688
54.712216 42.682973 63.292770
32.878025 43.985029 91.204833
4.336899 64.852095 92.886880
88.019726 44.388541 56.901814
76.275990 76.884476 80.526410
89.893880 90.712600 40.925683
45.133099 34.233042 1.499827
99.701530 34.502815 33.847506
73.774027 59.551531 91.353054
66.527849 99.899206 4.154074
82.408366 6.871728 47.891000
10.886252 56.079390 31.399821
11.058623 97.325290 73.199377
22.641608 57.005119 1.498817
66.756863 44.053560 50.656615
19.910405 63.479394 17.982680
58.862075 83.386960 0.439674
45.914772 8.198993 40.689434
5.074505 6.697185 32.441676
99.875474 3.029907 41.015364
18.607433 23.383870 10.169857
14.437420 77.697658 90.944436
10.860065 19.277343 89.989340
0.094956 42.400157 13.187000
67.192590 29.475433 99.704236
23.489769 84.542275 47.394175
63.809350 80.610992 57.295387
91.609513 94.999462 24.322690
56.033734 55.572694 15.321456
65.815098 97.672040 45.923517
44.384838 76.837474 44.536312
84.484106 8.764048 20.110354
99.885296 85.429025 21.915458
40.159163 28.325713 66.561217
92.005467 65.662545 48.848585
26.609353 89.210006 99.212542
61.045640 1.845342 29.858647
95.035717 53.277102 7.929915
82.747936 18.539731 58.624173
98.047192 78.671537 62.966565
12.674793 61.235958 83.786109
46.483880 79.881102 84.634223
81.915983 55.037287 52.931461
82.302645 81.848480 66.984673
37.046092 44.699815 83.157546
89.566523 18.189572 69.878983
39.152942 99.666060 30.002737
64.515528 0.874468 57.812045
62.308122 74.038539 7.212489
6.322877 65.381951 23.230799
99.679193 8.582592 7.546076
21.557577 99.018247 15.403969
18.795074 46.366941 65.735501
81.246922 81.098400 90.279697
89.849789 32.113004 94.851183
93.734867 79.696083 36.797907
6.165454 67.381183 79.029558
90.234654 34.585229 70.189369
41.369755 87.187520 7.656243
76.928141 23.210944 76.014227
2.441405 55.262253 89.982788
30.609429 76.677650 93.769604
19.102834 1.432996 74.820739
29.216098 87.789172 0.295161
29.745823 14.747253 69.008946
99.890929 47.998482 23.561050
91.611019 78.600090 90.111660
71.000268 45.717826 18.105677
66.213213 37.295464 7.879787
99.080420 68.187174 91.770054
23.181489 38.901892 19.677104
79.685622 29.711228 17.860361
40.230250 95.089547 64.795118
10.824018 99.218564 99.200553
22.689539 58.757839 40.501449
31.376588 88.566090 50.427898
76.312881 82.938040 52.071857
91.162504 63.349487 14.831426
31.972632 65.307346 21.429030
6.449290 89.136805 47.164786
78.717562 36.812305 31.002544
59.617408 7.957554 14.722680
51.465489 32.517989 77.226128
45.773025 55.220873 18.147062
17.894752 35.490902 70.403276
42.418570 9.930976 12.443955
92.876724 25.193613 6.220010
59.688889 71.006712 62.174562
0.329599 80.893161 15.068504
27.955993 73.402033 81.004786
55.744872 91.444419 93.676218
35.598906 74.087432 67.708047
79.544281 56.133693 26.517707
99.343551 50.484287 78.434166
68.456894 73.271971 86.390093
60.367356 20.226380 10.552598
1.615672 32.523928 34.830971
0.129339 16.055321 80.927701
76.556753 59.297305 66.786501
10.599227 69.159755 33.471549
46.221751 63.685082 28.475311
52.882322 50.260255 46.106084
24.036398 99.354492 68.843479
67.819957 59.440371 55.853388
54.101218 82.339055 23.849338
77.511010 65.572935 46.412675
36.286089 73.493101 52.573217
58.832688 0.168786 99.876287
67.574010 25.865465 33.214823
91.842112 87.364403 60.857797
75.778437 69.930988 33.684809
79.326510 65.507672 79.229386
58.941325 66.111022 46.123544
92.734597 95.888420 75.844733
17.045664 62.469556 7.674239
51.748261 34.767558 16.070245
10.847018 81.407475 8.130885
33.265406 69.290859 43.204927
46.721313 62.862822 62.908105
81.451580 96.248756 37.640868
94.655456 89.316228 94.293527
52.403277 59.526504 91.678935
84.228655 79.955758 15.246925
49.955267 75.484042 76.419185
82.733462 92.081078 29.656807
8.939832 36.291227 2.444846
14.612287 82.539618 51.870299
76.427138 32.563294 73.253673
8.421875 56.043050 0.174420
58.550018 12.489674 35.404757
48.637196 93.254467 74.433673
70.932640 22.109712 25.958929
94.785077 54.034444 17.449829
68.464582 48.522492 99.626744
62.738155 40.480351 76.116201
88.426419 70.070265 0.301470
46.674681 63.830178 76.635588
29.074515 40.697863 52.480684
34.823086 91.152476 94.633990
88.139913 56.477264 80.535122
1.073568 48.878729 43.789612
39.774663 37.804662 53.150712
56.624573 14.552740 80.081058
89.294328 75.015158 50.639077
90.956426 8.302104 54.315175
91.406058 1.115947 72.429016
71.227019 3.984366 3.836142
1.076196 60.003567 8.338854
41.810311 67.525983 13.750048
10.969764 55.522877 99.723055
75.393904 23.516513 8.066301
20.328228 6.511261 61.329115
40.674074 23.932893 39.492385
7.507048 30.149254 72.206732
36.057904 48.297499 40.923967
88.379469 0.821528 89.670594
52.806405 97.801722 51.983014
6.282275 15.360639 38.444524
50.435895 3.162691 92.270293
63.238356 11.330977 73.445147
69.206574 17.820683 74.203563
74.751782 21.781718 46.633818
86.048711 61.304725 67.870394
54.346379 94.846847 29.565618
45.452156 99.850602 93.672747
45.455710 1.705014 54.237061
68.339032 30.297828 18.555838
61.672897 83.320067 71.350397
20.464067 7.498435 29.127883
70.201285 76.659336 99.522375
70.744816 74.886385 25.742958
2.064188 74.819886 52.262094
58.981238 14.781754 94.522209
50.788100 54.831227 4.224013
57.793664 87.476925 44.564749
12.503713 0.620988 82.164368
2.513303 36.023672 59.297546
26.753685 28.334498 84.527567
42.746620 22.229499 10.831413
7.229514 6.317877 18.577047
28.991187 9.850714 54.406069
81.665936 84.729398 82.475509
63.271501 57.999564 80.255017
93.796885 65.504383 37.987464
5.883369 39.973716 98.025759
20.767572 25.364096 31.126641
73.000895 2.301427 55.621976
8.330807 18.483005 0.078638
91.894581 55.644256 47.775681
33.979719 5.659668 34.855775
14.283445 26.792871 24.832761
24.976641 81.437435 89.354821
80.786125 97.141212 60.941501
22.614532 55.185597 49.442135
17.883372 66.177916 91.177084
57.046157 93.746959 10.840539
20.348239 18.097432 69.358809
69.245386 25.632601 59.380233
16.241992 31.485251 8.601024
58.479697 52.927585 28.764693
70.766575 80.657441 42.295728
16.796477 17.448477 18.907300
97.457078 35.471083 82.236421
30.955706 43.498134 19.698242
26.987476 33.820791 3.719022
53.055921 50.537355 56.814448
24.260927 0.916534 11.746544
11.125000 22.296299 54.041111
88.406852 64.422466 99.921194
25.933020 65.351425 55.452723
37.816384 53.280035 97.774245
16.090986 42.851722 5.097636
67.422413 68.981245 19.837923
79.607104 42.363122 77.500534
37.623340 1.611193 8.666884
52.075531 1.244233 1.206565
24.530393 69.561233 71.175156
88.642643 61.659318 56.431491
8.337956 48.241965 50.215104
6.618005 0.231085 58.033384
92.338664 71.818248 77.780012
41.356039 21.042169 49.844197
73.781193 29.865893 42.814282
85.765917 32.026348 30.777899
43.062507 87.820495 48.687636
40.326501 51.575954 59.486582
52.265786 64.069412 21.818982
0.026257 29.036562 88.244983
26.928505 10.852764 19.364601
92.324443 47.552230 34.346667
37.925713 92.034344 22.312154
34.709731 92.255159 85.097445
99.635403 17.153050 46.989005
37.744821 45.281563 0.697519
80.267229 58.251664 8.087272
81.292155 5.875267 8.314511
99.101524 2.750115 80.538200
13.911009 35.097970 21.427056
65.037978 65.163993 37.032585
53.635863 0.421815 70.895769
74.158586 11.550905 36.470727
38.500364 81.983984 33.037329
5.810605 52.849762 8.069196
97.139735 52.598246 55.979308
94.415511 64.956271 68.239951
44.470181 91.212573 31.663130
8.228696 20.247172 67.578302
56.895669 64.793646 57.056859
99.004506 16.891003 90.954665
71.004885 75.328836 1.057826
41.248931 6.687078 84.151233
60.407165 26.545660 85.502837
99.619800 29.448691 8.923014
74.682676 75.444001 9.384421
69.172712 98.786528 72.042507
21.938238 0.010253 94.452518
50.880357 68.888829 6.567557
54.169319 34.630212 58.696011
75.642204 34.218029 91.394886
54.254858 15.076324 66.984865
99.472191 90.557630 49.871570
17.931518 78.205740 24.427081
82.439986 61.447521 37.054093
63.198606 51.651980 89.627384
2.813789 23.231987 27.807764
65.541742 43.736912 60.117174
45.568606 62.899228 85.584294
66.878161 88.662020 92.265906
29.375006 59.515335 31.070317
34.459389 58.838702 7.701352
84.549690 91.079751 14.959593
48.855818 20.604420 35.557050
23.768822 28.719984 71.295924
26.257687 4.763513 88.985560
14.201599 89.484768 21.383232
66.704706 89.462938 30.206845
6.796577 56.224058 17.400500
30.546522 94.997491 56.575539
57.346004 28.748410 18.538607
10.581433 8.043444 63.277328
3.813210 11.896426 7.676094
8.326455 39.400505 37.527866
3.501713 91.586719 30.481047
84.433579 72.420356 23.087287
38.993935 12.811658 60.338636
15.403698 49.276174 29.764109
11.215504 69.571216 7.901416
98.652717 71.408295 34.671041
66.164173 99.895392 89.288119
92.497304 37.918693 16.292737
71.329418 90.718847 7.418762
52.868031 33.758861 88.844129
34.013073 33.591502 79.172158
18.106264 81.351044 71.796529
27.099341 51.656494 93.278261
98.411848 96.217824 91.650478
90.248028 48.662400 91.891898
10.078016 84.457801 37.030230
42.523710 84.190086 98.631858
1.958195 68.682901 12.291914
1.075789 64.892980 49.680507
3.175456 97.612353 7.535171
22.870093 50.401778 6.478874
41.584036 50.016857 75.193809
63.897405 16.679626 24.000710
98.987703 72.512080 99.929828
27.622241 49.130409 51.991335
99.541785 99.070612 19.635869
1.689926 0.094802 15.510018
62.823061 85.103007 84.175566
37.678556 65.623173 35.302224
54.702383 20.738447 90.028920
23.237681 93.596168 60.424692
20.856242 42.658763 81.443965
50.751554 2.728557 30.555750
0.296293 48.518533 29.257238
14.958244 77.839308 61.236015
7.991487 75.623021 67.103368
56.976885 31.517356 99.075411
62.138305 51.908917 11.169423
74.150784 43.355290 54.219828
24.743850 68.836794 8.862206
20.151507 99.033459 85.427939
25.814034 87.212256 81.362500
43.570581 45.390567 15.669030
30.788067 41.640056 8.165734
43.588318 39.730172 36.268078
72.384147 68.164793 61.912945
10.801294 22.246994 39.979258
93.109031 8.631321 41.033437
52.834712 77.437130 67.510508
62.560219 76.394515 46.090254
11.849463 74.455098 50.184159
23.824813 21.371553 93.444202
34.240477 60.623221 91.269116
79.306726 37.586207 22.005855
68.911025 28.373088 49.994613
76.260524 28.157069 34.729872
44.323797 69.096771 91.353951
75.051968 31.312681 60.646884
27.393085 75.806795 56.692910
73.880789 98.937802 96.599651
50.379564 76.350203 92.118862
18.557939 74.841680 98.100999
81.451411 25.195169 69.235320
10.120818 63.677234 46.928824
61.059214 10.179558 87.879966
44.304998 57.301990 9.002922
31.685788 15.045775 11.944508
36.351046 32.168773 47.888124
72.568231 50.687709 27.423544
64.842159 46.293110 26.621940
48.557489 45.092826 99.017598
3.861448 44.355184 85.253535
0.273972 95.530606 41.192241
0.321446 89.937293 53.749867
53.837941 80.499966 6.999438
5.663135 14.578498 15.792721
36.389574 27.544124 16.965967
81.615924 19.973542 84.998799
11.418837 51.797585 75.224307
21.125160 84.288398 30.643669
73.307681 93.875339 51.687828
50.961470 0.208154 45.943488
65.283145 61.353197 2.139361
80.089829 14.351387 50.075334
91.900618 25.935101 70.579122
98.181138 17.137643 63.224944
12.756358 67.475213 72.337607
42.960715 68.900416 43.665392
74.228893 42.699097 92.360976
91.312845 76.140362 66.814367
37.408003 62.692522 80.851957
58.458496 97.641546 36.487711
80.787556 54.950628 61.428531
24.866637 26.415994 1.253615
70.787604 57.415912 83.206768
30.373919 86.292246 17.881407
91.556866 44.208791 65.111356
72.559333 81.745369 21.054645
8.130378 26.016851 96.329735
98.018628 21.652107 33.966089
46.001431 19.382820 18.162380
22.774763 99.899998 98.470717
38.165751 36.532274 72.860885
9.104181 38.314093 72.386706
19.101987 31.087970 36.537402
84.543227 32.707981 12.186296
68.817455 86.574885 73.742841
84.231763 4.521673 73.660929
62.272982 1.131472 82.710084
57.084486 99.672085 92.357860
61.625517 65.336254 70.945321
20.433497 16.876913 84.320922
51.227049 42.813428 89.300937
29.244698 22.724168 68.330590
12.951162 77.182123 33.504843
4.834652 99.312762 24.298532
31.324293 22.746805 53.880540
99.178329 76.441221 91.591173
7.638459 92.663785 78.736045
0.756752 34.874333 15.830944
45.949615 83.023575 73.167434
64.637283 0.327364 38.813255
68.704099 52.568141 2.600538
34.477325 83.065574 9.593702
15.930057 37.534541 50.847249
72.712956 23.008596 99.895785
45.037990 92.454903 0.165233
42.082137 45.686429 46.032391
21.085889 49.232927 44.347416
34.070780 96.636436 71.016174
57.135715 22.866091 44.422567
74.849019 40.817124 8.875789
91.758218 2.674353 13.225449
77.046612 45.054951 68.728655
47.866062 45.469573 60.322586
62.992787 91.820842 50.532582
58.336856 7.199134 56.181457
22.370412 55.472540 13.845240
62.414436 26.756389 1.654213
65.838602 55.653837 40.301616
31.397320 14.562630 41.161807
37.613044 99.610487 55.773984
60.088986 99.384035 54.747145
91.019814 27.627923 21.968826
11.466435 39.983074 81.169830
66.233682 85.611289 63.156361
67.680988 89.558278 0.465649
0.796285 99.857234 62.221909
7.387521 9.613954 50.884409
50.252810 90.358195 37.286059
7.434042 48.622499 14.983444
84.162346 35.887808 90.321084
57.346899 18.216564 29.172845
66.821517 20.446823 93.856939
35.561791 7.847779 99.467555
47.612586 0.218007 63.909904
14.808001 8.955652 6.884668
98.440133 12.461125 69.742256
89.163980 32.997808 83.768419
33.510541 66.220867 10.676286
61.331812 52.768333 52.482138
63.047564 1.627445 8.959569
45.085851 44.355350 7.341880
77.195335 26.927080 0.785728
0.049680 12.240071 0.090963
90.870420 16.235097 44.545820
46.397104 80.682290 34.849646
91.456902 39.417663 99.461335
16.582393 14.955166 94.513773
19.254279 56.199971 58.779559
92.881699 43.469012 8.268765
17.933818 59.664278 29.416341
93.845235 32.099526 53.442479
19.755939 68.439703 34.344861
58.683240 79.277290 30.739980
54.718940 68.235021 35.713734
0.447992 76.293944 82.103793
17.119477 41.977191 25.221842
84.876640 57.770730 0.738384
33.123623 8.105122 6.343082
51.710029 77.245362 56.814793
31.924549 47.499900 98.532143
38.330245 10.121464 43.681377
17.898516 15.222256 41.850557
94.288920 78.881554 21.237730
71.224843 17.091155 10.029496
63.170270 63.633829 99.750491
85.085837 58.639296 20.133151
80.709955 69.899968 60.456432
23.710275 47.926777 58.820613
35.853467 22.172752 6.633846
46.752350 64.852021 98.179922
1.960694 26.433734 8.354949
44.826948 72.520149 55.378027
74.950750 88.571492 27.260878
95.096766 67.501057 7.885105
79.656941 93.376137 6.811488
91.265418 86.738871 77.603543
36.883032 72.992140 83.087209
74.566789 57.549747 51.853218
5.055712 35.904679 50.774541
0.258332 80.212445 57.817698
82.403185 70.651441 98.768764
27.251014 75.091282 26.215943
80.171976 46.398223 41.716898
85.580819 77.264972 38.723477
24.010181 80.826770 38.292994
33.585285 63.756504 55.563635
82.756692 8.129146 31.332568
1.358412 40.829987 1.331544
21.964301 70.798180 19.751678
74.060719 6.376823 29.629144
42.888952 18.391788 81.699524
39.662080 99.487902 10.141319
72.171137 34.967086 26.543104
82.884063 79.261817 54.074994
56.373021 6.949850 44.137986
90.442087 44.177393 24.859682
63.837630 8.264491 47.651173
19.144158 87.977716 91.015836
17.814026 17.246451 51.818206
77.366045 9.272120 85.729315
74.993880 75.947493 92.803456
34.581117 6.538598 22.453892
23.845783 39.740313 73.664412
39.677942 64.708888 23.993427
68.433886 30.368711 87.195569
63.603098 70.254262 0.551720
66.914527 73.629154 58.691125
1.058453 10.590679 87.022805
95.919145 54.161805 63.999446
54.390435 6.634219 65.634635
93.263873 17.212936 5.535173
96.369439 91.905739 70.272493
51.262070 90.543411 6.792148
46.470102 9.380476 69.497602
68.977184 0.079143 93.192980
39.220322 19.368646 65.360655
84.992620 37.490222 58.689010
55.585467 37.951837 23.162827
99.358380 5.380850 0.052213
95.964483 82.490956 5.955558
51.527608 39.392246 34.192820
32.633365 28.340832 93.802856
47.350370 98.379911 80.059275
61.197193 38.159247 98.169796
8.478200 59.740900 40.122109
17.117319 99.167659 48.831774
97.063241 66.838563 0.455199
6.779478 98.177451 66.789316
0.627569 57.794266 53.347570
15.988299 60.160721 72.466209
17.945246 0.949278 54.307479
4.034950 23.146583 81.709710
10.683900 90.787758 57.752690
8.543206 51.667044 93.002851
11.154418 5.857471 99.720303
48.988724 98.942450 24.620187
72.355117 15.128977 53.202066
98.746261 79.032595 73.825834
1.496684 24.922406 45.661091
0.126450 32.879820 73.471122
78.382784 29.678164 48.959450
85.900338 50.077172 66.409398
32.663414 51.594033 15.992548
64.625447 35.323024 81.969935
28.594445 64.573326 96.618834
1.811680 71.799267 0.231849
88.852839 85.305630 53.826597
57.395068 99.388208 5.329562
1.127985 65.895219 57.277463
50.456374 29.661004 51.891197
67.038073 99.490032 20.988418
74.495388 9.895796 18.070100
12.608541 38.039843 10.158371
28.585309 94.316741 34.205298
51.166515 31.205197 6.217430
31.484829 84.624884 92.451578
69.974789 65.632624 88.692637
37.054140 83.757731 25.727884
21.535829 99.036416 26.119624
92.887683 58.179479 74.637921
15.995457 0.022396 10.193621
28.113475 36.599407 59.196224
62.921943 31.193180 30.324850
84.062604 37.913729 2.844674
99.502109 58.987555 93.761363
34.797475 55.030024 24.103316
8.718436 1.211380 37.155323
37.087089 1.116146 40.439494
99.974588 33.702370 25.922038
61.363552 36.035918 2.032688
40.296323 7.912124 74.732767
18.456482 0.261065 20.794950
66.180878 56.050889 65.124644
56.739684 47.639403 99.217415
23.851815 34.603250 99.494627
17.886081 20.037921 77.869710
74.215918 7.779510 62.607922
11.389317 64.164052 0.276450
20.063823 81.692590 10.614350
11.929903 66.695598 18.240802
59.903203 20.152249 57.717578
74.995487 75.211185 67.836146
42.363041 99.569365 0.681210
56.991591 92.761147 72.446911
7.467386 22.134236 11.790724
37.838857 39.777933 10.834543
59.215300 1.801036 22.467869
24.155459 32.047601 12.200382
35.555349 19.670976 73.739509
69.986562 69.914424 12.594883
52.297487 47.027304 5.493458
34.009762 11.762776 87.153434
3.636776 44.423212 59.437276
84.976528 67.692334 15.591178
16.106424 23.849531 45.928469
88.453363 27.222414 46.067813
28.228058 8.109265 28.829278
66.298225 16.912428 45.369916
90.011424 93.714344 98.439173
46.974406 56.735263 35.681624
21.137962 72.643112 61.177720
99.805496 6.910298 91.724110
85.396832 15.994996 18.011691
31.257364 95.191330 7.262938
45.360939 18.517616 56.056564
8.553293 73.319264 93.505917
39.686736 17.237269 99.459712
76.684847 92.150536 20.025102
59.200597 99.550626 84.854744
66.207108 25.491721 71.141443
86.882078 59.545475 31.225467
99.597860 37.730288 91.981272
3.003934 41.549816 44.011597
23.193658 27.595179 24.115810
67.640777 20.965419 18.952583
38.170080 38.626383 91.779681
67.394116 9.070654 31.940858
6.869109 86.062558 16.430210
84.194327 0.948252 22.733413
9.390266 1.439430 1.699855
53.305729 67.763114 76.988325
59.834612 86.286456 7.338533
52.989675 58.816395 61.780790
24.471986 70.345218 49.889541
83.724259 24.681023 31.770904
94.103964 94.953342 59.543389
80.113650 99.127186 44.480770
58.446130 88.687558 65.457217
40.969601 92.383271 90.125447
15.275212 31.946066 90.273642
92.179698 88.957589 16.031711
82.341744 0.221659 44.351944
6.542459 39.412287 18.696492
66.280089 32.152457 40.694079
61.280990 43.530839 86.167642
9.328024 31.858734 57.848077
23.646869 66.646548 84.375065
54.130558 10.144939 19.381074
81.121038 19.222563 5.779879
27.133349 39.478517 84.077809
20.191780 17.320476 34.435923
0.704588 80.038721 38.729535
92.336067 7.714490 6.241303
99.823903 37.796673 14.654721
27.650502 0.660052 77.514398
79.657799 16.975866 42.034060
28.073089 99.295608 41.388648
39.873627 51.836003 28.601931
0.180343 80.505956 97.128117
1.961339 18.812448 21.118615
53.309591 22.736134 6.490921
20.457416 87.588784 37.790718
69.001058 64.035528 69.739753
91.616043 72.866639 85.295393
27.866677 50.325919 25.026184
17.868261 44.290345 94.863933
44.010271 26.026724 27.676914
34.901428 20.687590 24.590079
4.802102 80.720588 89.225525
99.892922 20.189117 2.761434
22.144288 59.113405 83.231681
30.182810 18.615777 82.162797
49.795175 75.889423 24.353982
98.630121 1.082838 24.276062
39.633623 92.897189 78.268026
43.848749 35.659727 44.813486
79.813956 25.011656 61.387721
59.407398 70.774454 91.461140
12.633953 62.730932 95.215575
92.398353 37.294977 33.739274
87.082696 43.142842 49.602713
36.300108 51.972291 81.659346
27.489085 0.193716 41.007110
33.248199 44.140275 66.707442
78.551999 1.361852 68.561031
8.942108 54.054635 59.440309
75.116237 83.520001 61.391169
25.987935 3.691385 48.410317
28.984381 83.379387 67.833353
49.134102 55.382521 84.377294
58.710063 13.223097 7.039838
34.712491 91.578637 41.942996
62.206258 43.241208 18.028467
41.448021 33.945080 29.920220
94.629764 29.028426 64.030904
91.270247 23.955832 56.603555
45.654090 38.439417 18.249057
0.589333 46.022295 67.183121
53.171496 93.445256 81.256351
60.808151 13.731135 53.626382
60.943020 30.382583 47.421388
66.298519 97.439463 34.614539
99.341909 38.224785 62.550786
25.888545 17.681014 54.154427
0.875405 0.587766 43.868873
84.325133 80.526090 7.120045
49.061310 45.255195 68.217242
67.619016 20.644309 81.233987
6.007356 71.228108 28.015896
17.501547 99.772731 76.675583
71.248395 92.868486 43.067862
74.004209 7.614760 50.545556
97.229555 91.771901 85.794133
77.318595 20.589205 92.898533
17.136993 99.956050 32.276626
68.824912 47.779499 73.136943
41.035414 74.840934 28.248153
25.704261 21.701946 45.645129
42.951808 7.541127 99.117791
28.401760 98.617033 0.576540
85.155636 4.622564 37.515812
50.955088 70.016131 67.899439
12.174709 79.026296 75.544862
41.151992 8.027093 34.085738
83.802162 53.707671 98.916412
29.033273 26.646693 76.692258
88.918783 14.498243 58.757717
68.124776 54.002538 17.495712
21.942967 22.712290 18.457260
80.795325 87.788352 98.731845
85.559408 99.484447 73.083373
39.064074 87.107352 0.253705
5.757677 83.761657 30.664753
0.018008 27.016576 66.922492
74.775981 85.546072 79.860575
50.078200 90.802621 16.027920
83.645141 89.274958 64.623356
52.315535 22.254753 57.818433
79.855175 99.753576 2.207274
36.924052 91.642127 11.465264
83.963522 91.291318 46.483049
79.077888 43.563358 33.895889
15.326008 46.117066 49.362273
56.647448 76.959402 79.086090
68.282014 41.971291 2.213607
68.053370 33.997213 93.784076
23.188918 76.252457 76.195462
27.445716 62.504025 16.368861
97.741718 52.400190 44.743174
32.469834 82.135906 53.788352
29.303004 8.251226 0.080804
92.874719 34.732822 1.841598
15.158859 4.693149 88.001631
13.177585 31.039032 66.431161
46.406014 62.569242 50.340177
82.946294 68.593562 72.655947
37.125526 70.553450 1.187068
1.868564 6.597814 93.206594
62.442616 57.806202 46.420581
8.772808 48.332069 42.719454
72.346646 43.883717 45.934253
86.042990 77.754895 98.739358
47.894130 72.734542 39.481206
29.353713 81.836631 43.188163
46.417767 13.064569 94.893364
74.243721 99.646297 80.172176
74.266375 63.469865 27.234998
91.630816 80.106318 14.063096
17.633831 3.050773 67.849391
55.335876 43.362247 46.910284
99.728766 72.747308 48.999285
55.663103 35.408493 51.594215
58.073853 85.292410 90.520819
5.263488 16.665481 94.795320
54.321795 51.308967 21.419197
43.394579 2.190579 90.082756
86.360084 22.133067 94.882015
83.495466 51.431415 22.185397
99.650437 10.946715 56.612302
76.509833 26.742163 86.508164
30.508184 45.481961 46.391629
71.511002 0.053288 84.259037
16.340146 67.558577 83.496844
38.615708 61.594776 99.089649
0.690323 92.546335 15.571956
0.079017 12.130545 36.432424
0.550702 10.209194 22.205276
56.622170 85.711083 54.556008
54.509593 27.900571 36.146520
91.235450 69.514984 30.221279
70.618015 92.871097 85.903530
48.489837 16.571500 74.758496
48.963980 91.703131 44.999107
55.003172 46.276752 82.041451
93.260212 7.875779 82.778686
34.214547 98.122785 92.709086
1.004688 47.062595 6.904712
54.716951 22.648013 64.890929
8.111715 48.885663 1.293978
91.142004 95.548006 84.672313
21.648442 45.633608 33.877340
40.695480 44.937360 56.401035
16.572599 97.719642 56.700008
96.535320 28.424937 36.197571
52.841104 78.164239 17.628612
71.253065 44.762274 84.814040
38.629139 85.258849 61.842665
39.231264 14.999799 22.833262
83.509902 63.231064 86.284043
59.649996 49.872384 63.248788
29.499755 57.544853 38.376710
14.009974 69.756993 57.965463
30.905873 22.625186 97.889057
72.419090 51.316192 36.454625
30.577315 74.723474 0.790474
81.909766 52.583504 45.028462
7.439515 99.255418 49.506403
52.023729 71.319447 83.147127
16.335741 93.472328 70.072698
48.133768 54.569198 72.772589
98.380292 70.868778 62.332958
87.836234 47.903498 14.940465
16.832753 78.807371 1.548758
31.868165 79.427181 16.211380
81.383269 72.183747 9.363545
99.831292 27.827770 98.137507
37.858784 18.956419 55.802536
93.835942 7.392081 96.597141
88.252541 91.805209 5.089524
51.626927 4.579418 15.443414
29.171919 80.982827 83.221870
48.057449 99.506152 70.800285
34.249971 60.948126 74.612767
65.812216 0.298116 67.034476
17.521176 37.542868 85.294879
33.004390 30.927899 62.051190
63.438018 64.006073 52.411924
50.515617 98.894794 40.499099
38.387646 54.222922 66.508813
76.077071 70.215820 23.485170
91.936578 99.971752 6.437287
96.305507 0.328910 48.882008
85.063336 42.963225 91.284979
95.487801 39.501175 70.006772
76.441863 83.588362 32.300198
86.970041 90.407708 92.096407
47.574296 52.626615 60.980165
49.675137 23.700473 43.133664
91.446800 87.140595 0.432865
48.244452 91.794608 99.536102
82.435862 83.867527 43.100933
59.904817 99.223141 71.255559
47.078182 7.709848 6.846449
94.509286 15.405398 33.411201
70.347503 13.675725 26.076007
83.314597 5.907685 89.965925
6.190263 6.305992 68.693794
0.895875 65.216343 42.509576
40.256606 53.498065 44.815180
50.561392 46.464581 32.540145
52.053139 63.124616 43.870103
56.651119 7.332858 94.702807
30.246108 8.873148 93.466957
66.937966 7.048987 13.164942
34.898885 65.080148 65.643097
79.458140 59.678647 75.077916
99.544949 98.394670 63.293872
24.133546 61.845391 61.866979
87.998708 51.299290 52.213376
2.449963 36.404084 27.723486
94.829887 17.402468 75.036072
69.424278 1.459214 76.247893
2.209769 27.426269 0.467488
93.471606 2.636322 65.750913
77.466292 44.884107 15.161350
79.021751 70.511918 40.033174
70.486128 83.165730 12.960016
27.090825 32.362127 20.488576
13.342074 6.920755 29.114957
74.055922 28.896425 12.649876
20.735166 27.767634 77.772782
51.107518 86.703275 68.018954
4.022875 29.701365 78.578208
94.796752 0.504524 94.863845
86.555224 48.202426 75.968258
9.133626 85.818921 80.077514
89.747608 54.208030 87.288760
96.090862 97.054118 47.994272
78.401146 1.131146 60.288774
8.720861 89.031950 26.345647
42.354985 6.883688 19.050401
69.891635 19.657748 66.116083
6.998324 46.169144 35.727374
13.449585 84.947833 96.368201
62.447651 31.904825 22.790675
4.079663 4.565633 5.638167
40.845225 38.496868 81.943441
20.275109 45.566458 15.095272
55.977103 42.429163 38.857936
47.350365 28.045864 70.737144
98.140771 92.179348 24.528286
11.948933 89.937733 5.941505
41.752914 80.083490 7.774901
79.854094 94.546672 74.665081
21.695499 35.073778 62.836867
68.524492 42.657632 31.501622
33.444734 0.604144 61.175906
17.309848 72.976078 5.738803
56.613847 57.652850 76.649196
57.760704 50.452764 70.594184
26.213045 56.165859 74.881639
82.387380 45.713684 0.759984
94.388031 86.912877 46.495612
29.353970 87.257882 32.557206
92.717502 0.653436 33.004266
24.466233 38.652101 32.756738
29.113266 52.660471 9.044922
23.550972 92.471110 13.522504
7.944182 34.853301 84.924096
9.087623 87.792403 64.169431
20.285964 16.520739 6.331927
26.555226 99.822403 20.376208
63.488095 66.106331 77.747281
86.419687 0.814854 8.105320
82.450023 0.246798 83.406216
1.618280 58.327200 78.565198
84.630534 38.016350 26.836286
53.618056 99.018873 60.705438
62.766152 84.668762 17.639691
63.948845 92.682206 98.375654
72.925140 23.416956 38.801641
63.115268 38.253352 66.202962
32.069937 14.883771 34.120439
8.948222 33.980104 95.830504
43.183089 61.898013 18.521352
20.792453 92.151154 53.940241
29.656709 89.720754 25.685567
80.016068 47.485007 82.918042
48.861843 68.910024 15.704780
26.359238 28.313761 40.321786
5.910313 18.821537 74.103022
82.636665 73.986585 91.392086
14.725305 13.984551 63.937135
90.125384 26.051630 82.993459
79.825209 59.507309 99.742202
99.399479 66.474669 42.712669
24.509039 31.469381 55.981973
98.844230 23.022672 17.780093
53.107484 62.225503 30.503529
69.445060 77.179081 48.277165
92.846136 45.599682 77.847864
44.286224 25.180817 80.298516
50.969057 40.918531 10.667595
30.279257 17.605245 18.353898
71.597272 51.646014 9.975105
39.111185 32.439777 58.272873
39.570268 84.516610 91.737878
20.967965 13.803904 76.778899
26.683026 79.446527 11.431428
95.624637 93.574771 0.329663
53.864938 80.167063 35.878973
78.710899 75.224335 74.141089
20.583108 77.995650 46.912951
13.548145 11.856183 16.158769
77.891095 0.383079 30.371086
48.202603 85.976246 11.164742
86.669754 11.813874 26.735360
19.592114 89.505461 99.256025
23.935102 37.486320 41.265583
68.442752 3.333825 50.307285
83.749320 99.902072 88.881116
63.209020 70.479441 14.412101
0.869059 40.178670 74.185883
27.086710 75.265778 67.998789
3.467237 71.070403 36.516618
37.785937 66.767368 90.361544
48.019952 94.314377 59.659178
44.515058 0.293924 4.229940
33.931248 29.841701 33.924743
52.962782 11.847697 39.579124
74.176728 29.836751 99.338466
67.618088 59.766213 32.056894
18.191011 64.509297 42.881815
21.324804 86.794900 3.963767
93.299383 77.418226 56.278874
76.710210 58.067828 44.290347
6.994491 8.008645 25.842138
91.835255 29.223028 15.207497
60.691315 88.663901 26.725998
35.130458 98.902361 21.642947
75.533935 15.461603 76.016111
70.235076 2.100415 42.780418
41.561507 18.431048 0.843692
58.662268 61.623429 94.547414
76.078184 71.094203 4.107420
73.357780 36.984814 83.579062
75.486140 50.134252 53.270818
18.288960 89.059699 46.311419
86.382910 21.433215 42.421821
45.000162 30.115696 13.035667
41.744587 69.644391 77.022750
74.580621 70.010559 97.067875
11.534054 64.482067 27.817254
74.685704 62.168843 6.654768
14.974202 57.965337 1.560057
64.500460 75.156603 22.666945
78.429045 10.120886 42.193829
80.172635 28.214956 93.276561
51.821466 99.932429 9.470435
93.433248 65.775986 95.295846
16.892988 1.275890 99.081416
98.448218 65.787135 18.104025
56.572647 73.472488 48.105756
42.004195 95.865381 36.317633
84.748482 23.215284 75.525032
79.415804 3.372190 53.158571
86.950922 15.658917 86.133017
41.472804 17.513041 42.933558
17.026944 0.892191 27.570374
92.731877 64.796173 82.060821
79.435328 91.215608 80.753619
49.113430 14.471208 50.640515
68.204429 39.513623 19.524093
46.687150 25.638922 99.555257
13.430070 8.160732 46.386710
68.622849 13.665980 85.654670
21.514891 84.992371 17.428971
44.800650 56.222330 98.607933
4.550652 81.734755 72.033152
30.882584 40.329440 25.869088
34.916465 39.428232 57.947361
50.820806 33.510636 38.672872
0.456870 63.925255 28.988904
51.478008 39.753611 78.922732
85.760738 12.407596 69.544396
37.946132 74.467374 43.572087
52.024722 2.158504 77.764684
82.873964 34.696831 71.306136
60.294870 32.402242 63.426310
38.722843 84.666463 76.634135
20.317183 29.801045 94.506994
35.781539 11.111210 15.903670
8.624804 17.070338 25.938822
60.439470 67.853240 21.454011
13.040314 35.526012 32.706110
78.772902 46.248591 97.113349
22.749703 62.886218 70.821721
52.449220 18.032131 11.489251
14.258904 6.988699 75.782406
29.932185 73.251871 7.667301
17.601938 98.020686 7.068162
56.123940 54.194156 94.023560
87.359566 93.455006 34.687441
32.849274 71.178979 34.915598
58.232529 53.993584 83.178967
74.131169 82.599615 94.434953
71.338291 59.600861 62.218237
75.204888 63.261021 84.862704
48.770910 83.003413 47.780181
93.048693 8.044136 17.365833
64.960123 21.219886 4.892213
89.475793 15.515593 94.061407
72.500022 37.460616 58.639429
31.278724 12.721466 75.419583
55.747554 52.842051 8.579801
7.234410 74.066783 58.704954
99.805647 47.098362 52.597695
69.702984 94.943409 92.513050
61.795066 71.501259 99.890036
85.157914 66.395976 93.815770
35.387826 61.771937 1.545331
33.883574 53.804607 57.340800
28.161693 20.595174 25.969400
96.305611 52.081291 91.466048
46.189073 30.621307 84.626970
50.989469 38.131868 66.989157
55.816093 24.576568 23.885242
58.510233 24.935381 93.921707
14.839470 52.002238 62.892927
34.061284 38.034274 38.006557
35.757979 46.303599 51.036174
83.187214 25.711485 4.545585
5.238530 95.597479 35.781194
12.754505 24.990379 81.259835
23.446717 63.683114 3.607463
65.122030 4.506977 87.968985
7.896382 84.266995 51.785811
24.237861 99.586622 33.532186
81.994275 81.776628 75.367541
83.452511 79.512524 22.753553
75.331681 49.140788 0.313593
27.778941 28.153947 31.399490
0.230558 69.483770 82.902456
0.300973 6.232059 40.012085
55.140851 30.179583 83.030357
87.819101 63.722760 40.998606
61.131124 8.836256 1.269097
99.855995 44.574610 31.996565
91.199472 71.993494 36.613111
73.777816 99.192992 19.771774
32.977663 77.188575 22.927958
81.744743 36.878369 48.801046
61.784666 23.922884 49.743159
68.487130 29.311681 25.333910
65.605616 67.571245 46.978492
99.338133 8.394395 76.665576
57.882756 56.893188 23.215103
0.224163 93.452320 24.769722
45.423262 74.565255 71.225378
83.534026 83.978043 28.576828
13.472511 75.201599 16.704600
17.911738 83.249692 58.271698
75.385232 8.894572 6.650219
41.849669 42.374872 74.204098
67.183063 50.970826 49.177885
5.422905 34.102828 66.043402
8.106951 12.580976 77.877545
32.076374 1.192534 29.185208
70.478596 9.864297 0.433774
7.252718 92.168096 13.387342
68.731440 32.922989 63.216908
64.890601 87.284672 55.363512
18.720911 52.110592 73.480385
22.166686 91.876982 84.991902
63.957153 21.058884 37.133676
5.352039 25.657969 33.657344
87.947249 19.886333 8.866521
20.105830 12.181159 21.697272
5.976909 37.815993 11.711186
27.088288 19.299946 8.012474
14.439976 43.021011 59.399639
70.635349 45.437194 64.306147
61.418478 70.931078 40.624887
49.197193 63.896732 56.408239
83.622236 28.345994 23.810058
74.600429 56.277611 32.115263
35.504917 29.942478 99.765152
72.286260 33.845607 52.505808
4.752001 25.808732 16.838351
98.676659 0.786407 6.323757
22.819772 21.223810 63.839246
25.947368 77.999648 99.289169
15.588001 27.266646 51.792382
55.034067 55.496228 42.328153
89.362645 56.926338 6.790712
92.981495 76.232472 99.393390
4.230365 11.951732 64.707357
31.958712 56.772289 64.983410
56.059361 72.083445 56.002759
68.602804 55.676028 93.526866
44.632293 91.888161 68.867622
