57.082149 22.518401 76.620252
43.625318 13.475267 74.733582
6.511793 86.019423 2.716864
30.432038 61.466622 61.399072
22.684114 54.527958 76.292344
68.045269 77.013270 52.708270
25.454496 66.385764 38.823796
37.191755 8.367173 76.987783
88.907443 0.835828 99.211774
98.508839 18.536562 10.517119
72.378641 92.442321 83.423725
91.573599 81.092493 1.826507
73.187304 35.530173 29.749510
15.937854 31.858414 33.758788
23.174328 63.809863 9.522247
46.078862 43.948604 51.805385
3.533339 29.656705 28.401455
35.513221 10.474122 15.911728
65.612461 64.426153 53.142916
59.814409 62.811428 5.264825
52.239541 61.178240 47.296436
42.103848 94.865144 81.300503
85.718281 2.570724 34.999021
79.526044 81.253792 84.896907
47.857769 79.689217 26.875996
26.332381 84.142173 87.236757
3.904726 35.837460 92.556256
60.011206 45.084447 40.223572
3.158623 25.510221 80.930315
83.322531 30.448989 22.907152
1.016309 33.028314 26.719964
51.274534 87.851659 15.113329
82.620173 99.801062 39.095879
85.483663 27.468202 48.233789
93.180445 13.309970 13.169255
63.596209 92.858712 48.825736
89.445764 97.030267 84.389989
74.664287 20.902871 72.448187
30.807545 8.143864 44.333460
41.445954 13.252065 54.079376
31.857180 48.504179 47.942039
63.208121 14.573892 13.431371
28.275507 57.857641 74.752615
17.037271 83.029152 61.434976
9.812109 0.958968 63.415821
49.712338 70.193785 34.389417
70.718479 26.812858 96.376105
28.668651 98.155393 21.959757
87.895764 29.233779 71.660176
14.647858 19.172995 17.649657
98.715335 47.224625 14.722287
7.432827 31.830498 44.930629
10.296729 33.568360 6.771285
42.300285 56.633307 14.728660
89.844574 42.107463 19.885897
23.614435 67.451070 32.804403
58.038122 60.965339 58.751769
44.693399 94.284895 79.661451
3.276608 63.583597 61.088496
38.619675 68.557985 47.715109
13.884013 61.198087 30.046543
44.310862 62.358604 63.523962
72.069069 64.764568 0.184009
83.782854 14.387353 71.972434
64.296540 45.864685 66.596551
24.098478 9.023585 6.807445
44.350849 56.207370 65.838405
91.078247 28.729799 69.026680
2.608104 90.846240 42.089815
77.473805 29.830315 51.173101
31.150447 24.791687 29.844557
38.584699 11.194003 42.896059
24.621856 26.272937 51.930417
52.074219 27.199176 22.223455
91.400881 45.167985 97.649158
82.480939 27.187666 33.366652
46.431591 62.316062 97.566828
38.492720 61.975845 72.867512
51.238227 70.280778 37.901403
93.659862 52.045577 50.184925
73.500094 79.692104 38.154493
16.043764 96.237796 52.062776
95.517720 16.921037 8.073623
23.716866 56.065794 19.215282
0.365326 76.501853 18.082864
68.760995 53.890969 24.373481
59.726763 99.007725 43.769470
18.653825 91.346162 74.319300
79.361052 31.007877 79.625666
8.924449 14.078615 55.268661
33.741234 24.192923 61.040576
63.371853 50.135895 77.302258
24.243055 81.638688 70.337147
73.139118 46.743233 35.308385
18.177994 17.838658 12.493209
36.110623 53.755305 75.273015
30.363271 46.015829 42.851169
19.765533 95.475497 58.108854
75.168591 56.919634 79.129490
8.838223 45.177503 62.218948
77.801923 65.851741 13.871403
55.516046 90.035276 15.018348
8.761436 29.438911 52.813739
42.551230 21.725427 17.968802
99.920377 47.173350 2.977003
86.046240 21.538175 81.942191
98.869076 90.529215 1.739345
8.644416 60.489760 27.944728
29.996385 95.236943 1.040233
14.955364 80.731328 46.629935
94.259980 90.310358 83.680034
40.335012 14.557223 39.891127
0.238917 38.250491 6.817402
36.745654 35.819838 20.976020
67.779759 50.199053 2.960015
41.349478 53.816816 5.832466
31.098420 13.642575 63.449438
6.800596 4.509765 54.731147
13.637969 3.130463 72.406226
69.887384 69.549180 46.264865
87.653840 21.750308 52.044141
2.140087 10.874827 30.252650
82.225747 36.211993 93.724830
50.319949 63.397852 85.138846
65.884209 10.064174 56.164843
93.298806 88.668520 92.156834
49.255743 24.603506 39.738948
50.612876 64.004424 88.848662
56.972997 8.725122 93.145805
75.707493 99.500839 93.161764
33.809962 1.115061 21.571287
20.413239 68.868215 32.823926
20.563206 26.222014 3.000244
90.060375 75.260741 58.523579
5.885065 80.340590 43.863218
14.476356 38.013637 93.541480
61.988075 57.692629 64.949918
70.272203 60.575816 65.487856
9.014779 15.933324 10.764572
1.058453 10.590679 87.022805
87.160794 97.204740 71.514844
37.201830 7.998441 23.229344
57.707019 56.935148 64.412221
79.838411 24.265549 53.418289
3.682518 22.604960 89.293838
9.693833 59.551033 65.534279
83.219327 15.181909 18.640655
50.995973 93.060680 20.101850
47.205659 36.500050 6.597440
86.726838 88.541411 22.691122
78.455526 14.472659 69.692200
82.653764 2.862826 82.101973
92.519611 92.356571 85.516507
1.058989 39.681153 19.813335
41.444750 96.851773 74.640188
64.830422 83.462550 88.407015
83.060910 33.901681 30.022947
27.627155 17.987485 74.035027
82.548947 31.600454 80.742022
51.056267 92.440772 8.506941
98.356619 90.483462 65.692889
63.728930 51.736119 21.227866
67.232353 54.587001 5.649126
18.513586 38.983709 66.771782
50.886638 19.800287 58.888901
26.856079 99.928743 13.396936
96.440495 32.740836 59.634855
95.189745 34.500212 84.242685
45.849711 51.336629 75.936701
84.586986 88.753348 69.813435
3.315730 58.489152 52.506025
7.131464 29.186920 98.667194
37.848998 36.857058 68.470621
86.324376 39.915467 57.984562
76.834460 34.268548 54.449479
40.387894 21.070550 9.522332
63.201929 73.073411 15.661714
22.151736 6.147382 75.037350
48.240327 48.683254 28.792863
70.859360 62.628989 98.021425
12.643085 53.106654 58.765769
91.581130 23.914480 14.674829
7.960613 41.232481 98.429729
18.376423 34.043551 51.248354
49.298434 17.656618 57.529790
14.986972 7.031216 61.129363
77.268467 73.269380 13.993053
94.658023 57.810782 70.015961
78.275548 48.299286 64.399214
71.917872 26.284783 37.904474
18.849543 47.686296 83.248453
46.705767 29.540058 34.751319
45.812442 38.645265 59.095294
7.447803 67.180444 13.211055
45.922412 31.790720 18.836468
53.463146 39.039757 75.881807
75.010839 9.889567 34.334248
73.911105 72.045222 54.836807
53.282536 84.828255 73.241327
22.240275 34.024630 4.705161
23.257587 61.520092 8.575460
42.149701 93.518693 32.259949
81.266208 96.168790 50.760137
72.844542 53.841813 11.030629
89.181491 0.209516 33.369957
11.910026 66.356166 65.498736
48.782792 30.827388 21.996569
70.766575 80.657441 42.295728
81.618534 95.925375 98.501163
80.252410 45.459984 29.784615
53.883134 25.642843 7.682863
23.142295 63.410678 62.876223
79.756897 16.567149 47.647399
58.688641 54.597260 39.518703
64.160208 38.242431 46.794756
5.725545 68.106459 29.837761
94.347762 41.352437 46.738303
42.852461 0.606437 85.124336
89.414017 81.468115 53.750532
42.399570 3.445883 76.847457
35.831438 96.960299 43.117268
83.445498 6.797315 71.329025
81.628885 46.421958 40.407587
85.981797 56.354891 38.626130
60.152327 44.412225 98.947360
6.391958 51.096250 48.725546
30.948522 43.062606 85.583520
61.782898 87.614196 38.806348
8.624804 17.070338 25.938822
64.540231 70.063311 63.160653
51.973982 18.554953 59.984470
18.090995 44.268840 73.673401
74.452647 0.483437 33.390514
78.436453 73.621493 51.379941
12.492134 49.284889 97.413219
47.689068 70.161412 14.892140
44.826948 72.520149 55.378027
22.301615 54.527737 11.148345
99.572762 92.990545 76.409058
25.235288 77.743141 29.711849
11.112657 80.575752 11.462165
9.394679 72.395816 21.552084
75.681847 0.255720 52.648891
75.062188 88.851613 32.135043
26.555178 32.342099 53.736900
60.821605 46.095938 69.969850
52.744821 82.733202 97.553023
10.264055 38.328532 53.504928
84.107340 89.475737 64.668256
35.130458 98.902361 21.642947
28.961742 40.188934 87.869459
4.807443 12.541792 75.550424
93.797160 34.849639 86.604780
28.375858 70.691794 43.737354
16.743466 36.346728 32.497859
95.741020 7.082236 31.877003
50.583952 48.520626 9.904839
66.637944 77.302803 2.950536
74.897180 89.507572 65.863202
17.037410 2.853781 75.127963
41.188326 16.691337 14.778982
16.265119 45.469177 47.460127
56.283944 17.482003 30.575000
30.441849 61.002543 84.788079
85.336261 89.778172 99.701507
81.618199 95.395463 97.239317
24.259528 89.642559 95.824153
73.340263 94.601275 44.463031
75.358039 61.849438 23.703035
20.788876 37.468427 6.829512
40.764500 20.323084 75.997884
95.697039 97.339978 90.000938
67.702863 34.197591 96.019177
96.314409 57.178472 64.729947
63.002292 72.181974 13.335674
28.160812 13.861093 81.733611
4.980038 94.116817 35.861024
57.322400 0.880979 5.821189
71.410085 11.811437 61.369805
88.754541 90.262221 55.867531
36.167754 50.054546 28.897762
35.933858 72.187768 2.772799
50.126774 57.085974 50.945134
47.586491 92.475646 97.349033
78.742564 47.994996 92.252766
30.768873 94.952357 58.802387
45.196483 97.906871 82.425429
33.750437 24.946918 14.679702
98.746947 26.956997 30.676812
90.792767 84.940820 88.721054
13.177585 31.039032 66.431161
74.648610 17.904120 92.840736
75.212434 70.004673 13.382365
54.846092 67.401983 42.800138
10.372298 91.780423 33.277065
91.778589 74.392288 4.483129
43.536223 10.743349 27.810879
78.494317 15.338663 55.355070
53.838305 11.486956 73.744433
17.277804 86.108746 34.870382
13.956097 46.626281 19.925457
75.401795 52.512632 77.927584
35.947637 23.088377 41.581959
97.366094 54.120379 79.505559
94.552730 66.643950 81.079201
86.675814 41.823340 65.085505
85.630998 8.892431 35.995240
26.047195 58.449902 37.617207
11.368013 82.339767 24.909060
81.018927 91.048841 74.957273
19.649690 16.181884 69.376635
24.029997 85.500659 82.467810
47.452390 94.935290 38.929716
30.884292 95.846305 16.875231
62.461948 86.973226 55.210108
67.403737 90.528643 29.112924
17.119477 41.977191 25.221842
0.678888 7.352944 84.796974
54.137632 73.591900 2.142349
87.156080 36.006150 38.876223
74.914265 16.550151 67.558744
3.384529 34.579852 88.917811
64.176306 41.616625 64.972331
31.276514 50.404505 23.919529
55.602673 52.467353 75.747610
85.139865 76.770983 30.612186
28.351483 55.675815 8.156801
51.620305 57.266304 91.487964
10.313615 40.938730 84.842210
21.457499 41.927499 36.334148
25.967073 39.204728 38.275874
28.838892 20.487932 3.788808
6.157283 43.230541 39.144867
9.535798 84.298355 80.571732
89.078676 80.342781 30.979885
58.562637 65.034749 64.321155
29.267983 10.323557 4.085248
67.597433 19.134932 36.985210
53.187028 39.967083 4.155369
95.338440 60.668831 60.071824
26.155064 16.569079 12.099960
67.770737 26.517327 98.882581
41.964775 72.227247 5.084115
39.489349 64.953689 15.110786
69.249428 62.394148 22.930089
65.280112 83.977949 48.791122
43.530579 35.824614 47.081009
18.848348 73.321316 39.636202
53.725343 3.040407 71.002276
17.338253 80.523404 85.436755
1.099690 7.027665 96.464275
84.043471 93.268312 48.396477
25.333388 75.121627 93.963261
97.176616 77.543612 82.290774
26.833126 48.392668 83.445542
36.901504 94.387769 93.813177
53.797715 54.145406 39.956190
14.169028 43.073873 93.735852
80.174512 60.257977 37.472956
69.358320 67.812979 13.645621
37.291081 47.917648 35.879044
80.501413 23.759886 56.320395
39.202714 79.771546 11.695490
60.750797 98.372649 73.913860
97.066531 93.308737 2.062402
26.267578 53.776827 14.038489
61.065211 27.945773 88.560037
83.469213 12.068615 3.815676
48.206357 3.494443 83.448805
50.519876 36.694505 93.621907
32.556963 77.366532 1.554557
90.607905 58.924473 80.268619
48.052260 89.615733 5.272205
38.934339 78.920276 36.507931
94.945768 10.119900 58.405211
6.898017 44.475405 97.230635
29.564688 62.358824 14.486306
12.334011 93.225243 28.793794
0.335655 48.347198 64.798859
83.742168 51.100710 32.155311
93.678886 97.988741 48.351462
8.339561 37.050519 11.211321
6.560356 13.852818 21.191314
43.666393 65.853034 28.657640
3.307144 50.918332 52.881301
45.551054 95.273175 62.880097
80.914758 68.607630 63.647461
83.752345 95.450036 26.067829
12.025928 45.453621 64.360790
0.485420 47.508491 74.963320
42.433472 75.440260 58.123626
22.555453 23.629205 22.047818
82.623197 3.826043 10.585670
94.264911 24.331177 42.718030
58.100099 57.002668 92.244962
26.109230 68.531287 60.430095
27.448444 32.058172 1.303005
29.488962 79.017620 17.570755
23.751163 6.985180 91.581783
67.374880 6.926267 63.022419
12.990679 56.355394 81.869575
6.952418 14.720530 86.863845
22.686072 92.461693 64.205828
34.053009 25.622449 95.205652
29.035709 39.438070 24.747652
22.880387 22.366500 31.492694
95.499238 95.727541 63.226393
83.935920 20.162222 63.894944
99.459517 38.870504 15.208380
82.765517 47.478189 79.332825
83.038872 21.444060 13.099782
45.973020 7.505223 81.629282
3.470982 38.342415 73.890532
4.336033 69.375381 13.499516
26.207569 44.140772 41.795482
91.556866 44.208791 65.111356
58.657998 43.074133 74.216854
16.684607 7.141506 11.516390
39.421631 45.128373 50.212104
30.135936 31.201554 62.637501
73.876858 59.841347 11.033417
17.341517 47.913682 80.577673
90.902170 90.155547 17.526439
30.407277 66.980916 34.316497
27.391847 53.991713 33.665158
0.078026 38.209359 87.947571
14.431530 3.207057 88.091843
60.405448 50.176077 19.314767
44.904711 28.664948 69.365126
73.555489 23.450768 67.772611
80.076890 61.600265 3.567442
60.809006 77.230899 0.271113
14.959551 68.275870 83.069105
62.793716 56.489807 11.249556
14.756752 21.705594 24.968862
1.906059 82.220206 45.105893
13.385432 65.828266 91.823995
30.396181 74.563326 52.807910
78.983648 99.073109 30.542590
73.625103 18.671172 57.219508
68.650764 79.339592 74.988937
22.770444 39.488104 85.144076
58.240136 54.527515 85.383096
15.042203 63.354397 62.479613
4.418838 42.095824 36.367918
45.227512 63.642721 51.157735
89.957705 92.600040 60.424611
23.888462 54.553602 49.058164
0.952930 47.765972 95.068831
72.875163 48.693139 46.874212
90.637922 46.396889 31.842073
60.220039 28.590820 13.785907
96.507523 85.411753 70.178619
84.943276 93.487469 75.179304
62.296268 16.466433 92.384601
47.287336 85.621274 43.504948
60.877638 19.089142 82.503409
56.160209 93.149517 48.036747
47.842738 34.628752 11.706660
59.795519 37.295317 65.459688
57.365785 33.011290 46.446351
21.534276 74.672960 42.321719
8.329154 6.023655 13.280812
74.187090 57.924590 11.316708
47.025128 89.701893 86.568980
47.446662 42.614164 45.347412
99.337230 28.022780 50.150250
26.719475 12.403969 24.823217
77.096263 51.766289 81.563760
10.984378 82.548421 33.331804
14.794402 63.878242 89.715203
81.189300 86.941032 56.029811
21.704840 56.121325 89.261638
67.221414 92.474886 13.795645
90.124967 98.265383 0.009718
7.812195 56.619743 44.539250
76.154225 72.082936 94.707826
31.890477 68.449845 94.529978
82.998145 19.671804 76.576431
6.913038 68.256853 75.494411
59.700760 66.012290 7.285969
41.831506 89.388435 36.775122
31.976543 84.060646 41.183655
9.555871 71.827638 67.798377
41.754556 33.483788 16.138948
37.033333 58.070365 98.281986
49.724461 51.233793 50.320121
76.406260 48.033072 39.824572
60.407903 43.339235 66.209911
22.305786 50.648164 24.371786
71.304072 20.341033 98.556878
21.357265 54.102378 98.525268
40.559029 32.746314 40.442532
52.075376 35.088550 4.744515
79.014657 16.337560 55.030938
91.609194 62.168384 17.771849
35.484383 84.581957 86.645457
11.237085 45.559124 30.096137
65.815565 38.318927 58.031975
44.558983 30.649356 34.850862
75.658262 48.971190 99.814147
86.189174 51.714238 86.440248
81.878575 40.543681 39.576500
25.332852 94.698249 85.956416
36.642584 30.267112 39.567560
17.813483 7.009681 63.279429
88.439765 95.192262 77.658912
13.516876 31.430904 26.890162
48.704859 37.977692 8.113800
78.960617 29.961388 61.973962
81.850265 9.410501 34.419430
34.396859 12.288789 98.469207
78.156142 36.383271 67.116584
20.523298 4.781903 2.986594
18.435714 78.501955 85.171919
61.160141 33.710223 66.836523
39.310980 40.382434 38.617398
14.119709 46.166060 72.157287
53.632512 93.711115 83.456139
26.751520 17.321551 20.793715
77.656564 20.867266 16.088628
27.693292 82.188456 95.248214
33.259447 98.066357 30.534173
64.306193 80.404940 43.923219
48.395816 26.972933 16.548291
93.824098 23.298612 29.150037
35.504917 29.942478 99.765152
77.513517 46.332564 52.632461
17.859566 10.012213 33.152484
95.500829 30.343270 16.878397
15.925939 94.769266 93.019410
76.728964 23.874541 57.111760
37.651303 27.220137 49.850569
61.590867 39.413028 80.599486
98.483055 0.985217 42.377365
68.613043 15.178883 99.289863
23.448632 67.797271 63.216856
84.088634 29.228235 63.260100
88.442765 95.659264 38.655903
80.569933 15.544306 42.911660
26.833586 92.443105 17.137407
19.181297 33.109760 85.322726
82.077998 55.803420 62.440125
34.903209 29.956248 13.346525
43.203740 1.586792 9.813621
68.478232 87.882975 52.792347
35.380395 1.063401 44.475337
9.952779 6.937328 44.659753
67.923295 43.280472 48.925671
10.714753 16.657780 48.914067
41.101599 1.444112 98.832660
1.186799 59.773273 28.002185
27.955139 96.651928 36.277869
86.476082 57.243229 61.394473
35.760314 39.790079 16.732172
59.170735 77.798840 16.244698
20.153697 89.958986 86.875248
48.908205 26.396739 32.201753
32.155201 28.883730 23.410536
7.654245 31.665475 31.322114
99.722809 2.059721 68.201913
42.385764 39.925285 63.198028
57.750863 39.153943 60.248677
55.473960 65.827898 73.235324
30.129495 64.094188 65.129188
41.298611 1.775682 42.488057
4.785761 42.609549 81.854979
68.223613 47.329008 52.038830
77.681470 81.136028 92.519502
12.547699 85.183014 43.144931
50.394239 79.766480 11.427151
78.973145 80.394059 57.892788
34.819792 80.559923 26.827804
27.310200 83.566207 37.056951
59.843450 34.028547 48.058691
75.758717 0.210683 96.573033
65.505309 19.282033 24.907171
67.748193 8.180413 76.033058
24.707748 85.456619 93.066768
50.018470 13.813585 62.826303
99.060129 80.704329 55.255110
68.157087 75.266817 47.056792
91.765491 26.627488 32.116686
40.396018 51.987669 39.562659
15.389236 54.772171 96.798209
18.244067 0.902912 29.676662
33.580445 40.876360 27.838393
66.325933 52.843220 64.515968
82.772611 6.300597 55.364256
4.475978 13.845740 94.720634
79.569727 86.496258 30.220939
69.852987 18.770072 84.271200
51.491670 67.292862 75.214000
41.823503 42.953165 31.055113
40.276560 23.924049 60.684926
45.746371 7.723681 83.444380
93.448937 48.890395 18.302410
10.652109 58.293098 34.428990
90.827762 22.901987 14.407242
15.742375 30.167447 73.359866
50.780627 59.229077 88.668523
27.176102 34.851864 76.175762
16.225217 86.102700 55.268200
76.367858 13.627424 11.588521
92.532592 15.444909 32.375566
98.619224 92.941120 15.935520
63.464809 81.784217 58.294778
40.583475 71.377441 76.002136
84.055848 24.628906 62.417773
31.059019 8.940565 52.625580
87.915943 7.166574 33.391404
62.354713 51.708763 56.969125
15.988299 60.160721 72.466209
55.931446 27.934037 92.818371
78.891264 62.158075 58.158120
39.584054 32.274721 64.688453
75.036368 40.304906 79.969527
29.571685 9.012551 41.438599
91.386675 19.251367 17.471972
82.892866 17.923211 98.557809
95.835859 73.165356 81.394764
59.109700 63.143156 26.931814
93.997435 84.596367 97.815486
76.270373 88.562895 54.744971
23.788605 93.568767 36.163889
87.927914 22.690146 23.229061
20.609693 30.096334 6.833709
59.625398 19.711324 40.933204
32.423561 82.287620 86.124045
62.119056 97.550500 83.972685
66.451378 14.503857 79.872381
91.862849 65.474771 44.965317
19.912101 11.422830 17.924704
49.626375 68.735210 54.906146
20.530961 83.296998 95.251586
11.352646 16.780092 46.525695
6.422873 51.558158 2.019845
73.158076 67.626795 34.692947
86.175887 81.976309 7.384668
51.506205 20.541205 91.822465
72.925140 23.416956 38.801641
99.473461 65.913309 26.896777
17.691115 87.967475 39.320695
97.808492 23.895041 96.497157
85.893177 14.342229 63.692251
73.194070 20.853588 8.731967
86.156934 70.066480 25.769185
39.451641 20.823859 51.248401
22.510577 30.166663 57.850586
74.356195 99.525756 87.891396
62.645593 68.938720 20.397230
43.126821 21.709620 93.226504
74.203664 3.189459 92.746166
63.449627 41.284151 45.402627
12.482512 10.974438 48.408690
51.846856 40.436416 33.574522
47.118495 59.047584 34.136384
53.353985 18.508463 85.543523
30.744333 77.349449 90.525159
86.802073 79.888776 44.661338
7.086951 77.267263 8.825017
59.453042 25.615797 50.861555
93.734867 79.696083 36.797907
16.318678 10.162623 8.634064
45.559106 57.266973 64.991203
31.313490 91.586429 82.914309
39.677942 64.708888 23.993427
34.699478 68.229379 95.831935
36.250940 35.481752 41.469262
1.985263 7.854819 48.186615
95.006074 90.800150 53.491540
33.934258 9.470512 13.706551
3.039444 77.525206 16.863988
1.078638 17.845783 39.131355
78.868612 90.670892 13.287924
35.477203 20.899075 80.287522
34.230241 32.759723 41.217292
95.806789 73.156710 49.095849
49.624254 73.752258 85.892556
9.606015 28.043846 11.697494
61.429179 82.098097 65.961881
79.343849 28.404100 70.972463
15.508712 47.603784 0.129062
62.014469 93.694275 67.279321
59.379217 95.497738 64.701633
29.453683 57.115478 41.810852
37.225985 48.711608 96.037456
8.593600 85.895065 20.620451
71.010909 3.422916 60.737206
6.015376 40.818215 88.126270
88.912827 58.468566 72.782849
87.865537 88.893840 62.002451
22.330682 72.090398 23.604191
58.118926 13.783222 43.876927
34.262744 41.537169 60.593140
53.185299 59.839992 86.486278
7.791405 74.902629 41.031027
97.460689 4.002400 5.846617
27.484575 92.942932 97.622403
5.129017 49.694435 97.819396
93.278400 75.660808 28.840071
78.991654 46.845778 18.904306
71.541292 52.614454 29.016690
89.247925 10.635188 69.731430
49.743715 52.532577 70.914837
47.008243 4.238931 37.045805
47.237798 73.718032 23.319233
54.631024 32.306327 41.215907
5.640502 53.238139 63.189457
53.263580 45.924898 29.355505
84.550422 31.488376 4.108627
49.240812 21.201957 22.193144
20.623636 47.274932 80.065105
54.892225 19.855322 33.627589
36.324325 55.462027 22.192970
44.623939 95.227550 29.042410
7.486691 42.273912 43.728547
45.231696 32.799406 18.754899
29.445072 5.351251 50.625788
79.968108 19.180662 29.012352
80.200790 47.057520 45.164319
63.727973 90.999417 59.536058
4.117462 9.906953 11.677636
2.801411 49.601297 96.053446
57.245463 92.539029 6.988693
58.847537 31.559620 89.773794
76.041388 1.786083 16.603410
2.390516 94.002604 52.941136
65.787775 25.912357 71.436016
16.373351 89.951107 49.804882
25.576238 19.889775 39.206548
90.919798 53.261632 25.024633
62.702868 31.989704 3.524317
51.780838 7.702074 57.417961
46.843164 26.692507 86.462916
17.154659 29.148977 4.592019
38.792396 26.092998 97.574666
76.245369 92.336882 31.597099
70.441640 68.090264 23.974035
73.737011 90.789746 2.293175
97.194693 7.830431 77.318703
77.416482 52.969715 55.289167
92.997549 62.144224 40.724139
17.508459 68.314842 19.743258
8.692491 96.961309 15.810056
74.450272 30.818858 19.447937
73.660980 78.545927 65.421947
15.877305 97.306701 71.894123
17.097223 70.171857 18.199955
8.825432 34.394834 92.890592
42.984397 93.004006 64.420792
49.994452 28.834869 78.943779
19.483486 77.122790 88.210044
22.468313 69.830709 92.011938
86.082473 28.751031 45.321405
57.385528 47.674424 47.765016
0.536320 37.736907 46.412002
56.705259 75.692342 54.967780
48.821380 43.978548 58.027760
40.105678 28.646204 96.335970
67.956184 26.571866 10.855044
70.863842 59.447949 78.428572
8.866639 9.435983 90.280690
3.423136 8.010346 43.148052
85.453924 44.133341 52.439952
66.397815 82.588213 2.840556
17.178636 1.465566 84.924053
92.790512 88.733893 46.633977
81.593827 79.904751 54.524116
98.387391 31.934887 68.279877
92.420981 28.001015 86.548974
61.150524 5.856890 38.426910
34.747028 32.964863 1.324685
92.298022 54.166951 23.708037
64.224143 75.403166 47.864360
25.086643 36.403596 18.208894
75.858290 33.724728 0.564620
70.796227 32.070568 25.526975
37.490183 45.216089 85.610258
9.590626 34.878400 36.462013
40.387172 2.458346 78.711952
48.063221 21.090741 28.529464
68.673592 7.322424 74.466126
1.149834 5.100454 10.509606
34.320957 8.259238 5.562384
11.878017 38.128279 35.048934
70.394538 38.655855 99.485242
24.598320 9.605550 83.220127
96.201226 17.004863 27.408844
54.683667 25.122248 63.130553
93.949516 98.465761 30.553810
39.113720 67.364142 49.588498
64.528849 64.661241 52.973258
66.922609 22.562385 46.723767
73.568862 80.441490 38.437333
53.681888 58.987865 46.472733
36.344967 83.253408 11.913109
36.847286 95.229843 60.869924
73.010084 5.607325 56.231784
15.790138 12.248749 60.657156
0.197581 15.137984 8.536183
36.116348 50.342928 8.191666
67.253620 69.228655 30.364823
42.744622 55.133471 92.514241
4.589035 57.946322 85.539522
75.129094 48.470343 75.628177
79.055853 55.510672 56.752354
19.691062 98.762841 47.982098
32.917840 5.932156 7.072173
82.528224 34.511636 3.591649
4.017259 85.907662 15.781615
57.086608 6.353313 20.125935
2.461856 42.943878 5.909033
55.875615 74.491264 7.532878
96.975190 62.958704 55.514236
65.277649 38.580323 94.570349
54.864915 19.666384 41.973758
30.664389 29.834579 50.726604
92.191595 13.640017 45.878567
51.486595 28.134289 92.210822
99.203645 70.766808 75.865658
74.056768 62.313687 93.226565
31.448163 84.051513 17.414682
59.911289 83.000505 14.510310
52.241617 4.737991 31.597566
31.514444 7.384615 42.583118
4.429321 64.133462 86.053975
38.652612 64.340299 57.146389
97.785490 2.173025 38.744670
69.377766 51.547777 95.069418
4.005789 69.951688 34.873335
11.723485 5.486441 29.731024
99.073284 9.222110 51.893291
74.661319 54.591212 6.118419
79.473936 33.097966 61.254773
66.648680 79.569933 66.143929
14.257820 68.767933 3.041015
81.725881 23.110667 1.393437
70.274631 34.698089 55.524602
73.194833 40.313256 78.985253
2.918837 95.888802 60.408478
46.523929 64.116682 37.382788
91.640002 64.296493 10.006193
11.882170 33.714986 47.890710
29.208911 60.005225 65.262773
33.502444 56.380906 52.586653
87.205727 55.207802 28.522770
94.463173 39.049009 34.776843
42.112154 58.392767 71.388850
41.422409 5.429550 94.637347
4.608883 48.544476 17.898174
5.087901 71.392813 4.679763
25.423624 40.198985 66.067961
13.223227 60.934643 50.213243
68.391430 22.194486 90.577561
87.166166 72.728107 42.365091
12.997077 2.885119 23.672482
58.100048 59.063075 68.412829
65.742478 48.687633 40.087001
13.031950 86.533293 21.824660
36.057904 48.297499 40.923967
85.460058 16.629039 24.346922
79.969240 72.700601 61.924777
38.530240 13.315343 89.346079
53.851676 84.979112 99.576720
63.263822 44.815873 78.588323
67.481038 46.211099 71.296343
42.203707 69.334936 7.468151
39.738155 3.459091 89.955295
28.652650 1.786971 10.701353
38.010089 56.156589 46.327713
82.875938 25.925002 98.186269
43.251378 61.912073 19.650362
92.405411 47.451761 47.082659
5.863986 85.177555 13.506658
4.236149 24.465395 32.659557
0.709262 35.171540 68.706721
87.717965 39.604417 21.514040
51.031702 68.758197 15.754919
26.955682 55.072062 70.162090
95.934401 2.122327 84.041889
86.884557 99.070919 54.255927
29.698880 59.319175 28.983220
2.943611 13.963064 85.000531
43.538054 17.202633 96.000388
1.829639 43.581392 64.040361
81.274165 65.316820 4.535853
39.299976 25.704825 53.237220
20.225511 36.013628 27.036397
45.198046 89.029367 29.274315
40.039247 13.399368 41.689906
32.829215 92.301469 81.003520
13.211743 90.610902 71.587492
7.489627 30.339772 48.315194
14.394007 58.754592 43.499382
42.136496 20.969635 85.360025
22.844769 87.425805 19.684585
33.523584 44.569782 46.377030
36.010229 5.205368 92.935141
31.251468 75.914604 55.765893
72.737552 45.215626 35.278824
35.544011 88.484537 17.071137
42.540972 63.560994 16.529469
63.284876 63.572585 47.038301
50.984166 20.107292 81.205898
82.119782 93.353747 20.616865
17.343902 11.687808 69.168557
75.047247 35.641202 80.898775
35.366698 26.481393 85.532997
50.798702 34.827592 15.100632
9.138714 91.631380 8.990873
39.928605 88.376031 42.442107
41.988914 24.047287 64.015274
6.708169 36.335224 30.299084
10.184071 66.557598 22.828661
74.276324 84.759553 67.569742
74.056904 34.419025 70.959926
93.921575 82.418147 84.459590
71.369987 47.571026 69.262364
84.693249 74.456910 13.007059
3.109382 27.378649 98.258821
10.815544 95.975479 32.194348
42.592834 37.690405 9.630139
30.317060 51.216955 94.724553
69.484039 84.563673 57.889013
68.829786 29.554190 23.589696
95.313108 69.823344 7.563177
91.006349 69.178431 7.415468
32.848981 9.060171 10.429120
94.322498 83.657577 28.570874
98.751596 1.519272 41.261595
64.554186 65.146359 96.971877
51.270191 56.784654 64.294367
27.362555 57.755606 84.026134
28.900089 35.994511 88.960113
5.526445 3.273081 49.988813
46.233406 21.298808 27.184316
88.441667 5.029768 71.582945
33.395719 34.625058 23.610201
22.102548 21.357464 59.713109
25.261813 55.480017 98.507441
21.293315 66.834488 35.408304
5.510785 23.144691 77.619149
1.611782 86.059417 37.612967
26.199039 84.867909 86.204952
24.743850 68.836794 8.862206
70.382329 17.879596 4.087166
70.476502 10.628088 66.947365
43.946264 20.267724 33.442934
30.774959 86.810907 92.643089
75.750199 88.444473 6.545288
2.201951 81.734065 57.728499
15.417983 90.836751 39.060872
77.354569 10.679052 98.173446
90.608844 13.341396 65.856640
41.616075 62.839627 31.798223
11.759146 28.995997 95.315625
73.550172 76.351249 45.873127
19.144158 87.977716 91.015836
25.068236 38.135992 79.506301
71.163329 39.907161 15.921617
0.858710 59.750474 41.590291
36.998483 21.487596 86.219094
57.248359 32.523520 95.669151
52.815657 6.266545 26.965184
36.961589 19.605111 69.524935
35.002398 14.161306 87.629160
49.629863 83.437694 40.553676
35.757979 46.303599 51.036174
27.105815 15.962078 61.916224
11.125000 22.296299 54.041111
78.072594 25.848313 99.321058
1.497355 72.327773 79.423479
78.910042 18.184087 95.630634
25.795261 23.321894 54.287294
88.364313 24.454816 12.267558
76.914053 46.721847 59.418341
34.131735 24.795194 45.970975
85.200508 11.427436 60.245669
42.257737 96.740343 12.585398
40.725667 44.284075 40.893982
61.250317 35.946025 16.857633
56.675575 37.614237 66.408849
18.936182 3.003702 3.965956
76.993110 54.791267 97.497249
25.066852 57.699179 20.178710
1.175357 47.938525 31.321322
38.389643 12.761000 50.005691
83.355864 81.040029 66.641494
48.710218 21.958542 73.546176
19.085891 70.921447 4.008458
68.228067 49.320620 48.563729
33.382665 43.600667 83.040088
85.190824 32.066817 40.739272
89.827572 8.342819 56.358689
89.923556 5.305412 71.305241
13.028225 3.527896 6.025574
24.622954 58.441476 10.534854
61.355447 11.398650 26.070856
87.508108 61.366537 49.387317
49.439726 34.868943 12.434101
35.676020 57.678977 21.736461
95.535275 50.148813 6.128243
46.343869 94.199046 99.860451
22.807089 97.533806 24.027691
5.928379 23.223027 52.221793
70.444635 55.034986 89.589466
96.284731 12.600566 95.364209
31.986761 76.918708 1.122318
16.250740 28.905733 7.264550
42.961663 77.514648 34.405300
87.462601 53.918083 33.851985
26.033560 33.774464 16.276925
2.155400 75.388729 90.210131
26.209606 53.812268 26.963831
74.054913 34.916982 64.563601
95.948877 92.849026 58.746814
20.936851 88.164520 97.829390
55.787059 84.022424 82.413578
11.545936 99.129752 1.165085
11.726646 98.538503 95.577942
36.050872 69.141503 85.090833
83.433994 90.030650 19.705288
4.654473 56.750313 20.515892
83.821688 36.222805 68.518067
45.296226 98.973203 83.401548
36.930033 0.024087 88.209466
59.362201 70.561906 76.961284
61.686187 85.414584 28.774369
26.510033 99.379673 61.426466
27.978776 20.120738 78.975630
87.429176 86.590015 28.529371
65.821446 89.095596 44.993915
74.234575 3.052716 58.549574
90.966703 50.193113 72.503926
10.223500 67.884031 63.483567
53.864938 80.167063 35.878973
79.558983 80.723089 4.810066
23.310782 50.226713 96.044012
52.487217 11.752005 92.152274
43.791998 20.226250 87.675107
44.791293 73.092994 11.139028
77.195153 79.821128 57.932992
6.235799 73.537420 56.589229
38.361411 2.452147 38.017763
84.848760 46.418414 11.204822
55.302299 90.197044 23.440921
4.968577 24.270876 57.111299
38.952411 83.583955 24.079819
87.728280 96.899434 9.848125
15.490226 8.628180 1.550523
32.028349 58.859308 34.781439
92.887086 43.260125 32.664435
10.303474 64.037383 65.845172
94.062151 58.059026 72.084499
81.930942 18.304559 8.558746
76.841677 58.549327 32.240151
73.495080 26.897592 63.141246
52.715144 42.428946 59.655373
95.092502 62.390546 51.378498
22.998988 32.716312 34.232342
54.586921 33.215122 84.661586
92.058198 45.144248 35.186091
10.778839 24.101493 40.248758
84.551269 0.555115 9.715006
2.059158 51.674956 13.387904
70.658057 33.349844 23.464920
42.552106 42.280667 74.836814
3.941722 32.879943 34.016051
3.607798 58.334951 55.748582
53.335146 91.116306 58.027611
55.417273 80.281446 20.282550
81.626239 99.840971 10.936897
8.430432 47.669283 21.507537
91.386377 44.255223 44.761023
58.181414 68.052801 74.384594
61.938793 85.004717 3.410411
57.966830 62.390167 81.337392
4.700255 8.063949 0.167383
37.505340 22.309310 10.718742
9.213600 79.251412 82.036896
7.772862 13.938480 47.627009
73.722994 54.577644 83.464603
95.717118 61.156210 38.661241
6.203685 18.645480 32.979830
90.400688 37.894522 73.990835
78.905826 24.210272 97.658008
14.473475 25.163013 26.036507
84.711867 80.045377 5.400561
16.692217 8.081835 95.212720
49.890755 94.675561 67.965973
70.262093 63.151228 36.501461
11.845520 69.640212 6.243390
26.909188 26.059688 79.457737
60.849702 9.094087 66.843344
15.389039 44.463215 98.492334
67.812172 88.958781 65.099852
28.732481 99.072170 85.290227
27.942921 75.573665 2.253094
99.200561 23.387362 64.365203
54.700443 32.727268 43.493155
56.685475 18.470420 1.791484
96.712317 66.395551 22.350273
41.213029 44.959102 2.047549
55.439861 96.697916 71.605106
57.839781 56.484405 4.662534
43.513312 90.280516 44.796995
60.471332 2.965175 40.100637
14.006958 55.579826 86.484098
40.391550 54.210548 91.919532
33.494408 54.928713 0.310990
4.055877 60.825958 41.496257
7.489791 62.052447 24.516385
6.117547 34.003469 2.347046
87.808988 26.172395 33.795600
51.440101 88.788597 7.813365
14.065289 47.997965 11.419486
93.485807 29.064038 79.908102
52.559649 19.273903 22.342517
7.496744 61.126309 95.906293
11.190865 17.957605 87.816537
54.798219 62.070737 44.449455
14.418790 21.224641 91.806869
80.504527 92.399941 85.832930
5.013240 96.169587 66.572727
62.089817 38.940447 70.962000
81.077535 2.884346 42.830644
73.229920 33.813598 44.962611
83.923586 66.228370 37.032840
81.247562 57.896825 83.630018
32.112737 67.260529 90.655051
13.380537 88.980572 30.464461
20.722233 66.153505 65.812537
65.530014 71.197150 78.081146
23.804422 27.544022 41.369234
44.076391 7.926189 74.661754
41.387967 49.764709 91.855718
19.802428 49.747101 58.060981
20.131473 58.271115 27.350109
26.931720 25.660975 69.761665
50.811365 69.461977 30.066554
60.955261 25.540582 40.405022
39.341333 29.917706 93.545953
41.891826 56.862247 56.984217
80.299909 71.302469 32.641607
22.140635 45.945060 44.052412
42.376956 30.641533 11.019736
65.180081 39.222890 88.096386
75.532559 71.207914 91.353844
7.527886 47.678333 49.105019
8.769258 36.283950 81.182006
38.393272 39.369735 32.507732
56.065202 28.440080 28.361546
33.841126 78.099096 77.522121
4.080313 79.719239 36.788713
93.954882 2.347901 87.759428
50.854554 55.768913 29.295123
62.738155 40.480351 76.116201
88.826033 92.381904 46.907346
28.315672 23.465427 41.727763
20.141134 35.665659 4.663738
2.530293 96.204021 77.954681
14.379539 82.373300 52.704390
18.935582 39.418899 83.458453
49.336247 6.692606 58.498494
14.227152 36.298184 86.559550
49.262850 1.933942 81.177465
21.997466 81.305383 99.826792
20.872444 94.050977 8.469224
98.904978 79.611672 18.512512
82.379818 89.726279 21.726477
95.956506 55.483529 16.189190
37.107036 83.922873 60.750261
41.674953 67.760821 33.314806
0.762141 33.925341 98.500577
72.245000 31.688712 53.793627
88.191496 76.255623 88.885456
82.360002 34.168538 77.176969
81.505584 3.665441 39.577738
95.734551 84.084091 73.358474
47.568733 98.843648 38.762516
67.217352 97.830751 75.807170
35.981254 14.172513 87.617410
49.976951 96.648763 63.969120
72.918005 58.699537 35.482826
25.039990 35.835411 28.207236
99.688194 67.062031 98.386981
11.958168 95.608689 15.892359
15.120630 63.247515 59.667378
6.652114 6.262746 48.236189
22.850546 26.154590 25.996907
52.240289 58.755391 45.234353
5.887452 13.564983 54.792172
93.216413 51.689048 66.792292
43.244253 7.673598 53.297851
50.462817 21.673057 2.318157
54.347575 83.331636 67.036907
75.997824 92.851771 77.231971
59.153512 98.301392 81.053151
36.968557 37.600314 5.691812
17.590989 67.818983 65.589950
52.236651 9.925374 32.339099
64.292481 85.415915 32.832537
48.946699 46.547505 90.864859
46.630724 11.639660 77.997892
45.641352 61.388495 84.451989
62.682283 71.764218 40.619842
17.627285 84.839868 79.861902
16.022777 80.413961 9.334205
97.630354 3.039808 24.102966
97.143020 97.867406 34.136987
64.540034 89.784261 81.260551
10.318754 47.339191 64.655720
8.541973 98.034492 64.367509
60.188876 49.219304 12.132823
4.348796 16.541225 70.692062
45.104965 6.745895 51.809243
3.889272 59.043285 38.345983
95.684747 5.790358 92.455952
1.119698 31.181962 99.111091
34.530276 0.054366 62.283642
47.981905 38.691738 47.028343
92.372130 1.417236 80.974707
7.196662 97.663146 46.921002
66.122124 6.541228 44.656211
85.834627 57.110161 52.628628
49.189031 99.857565 66.779447
28.819079 97.993762 89.519699
81.454171 22.496626 76.460815
16.757965 25.469246 92.582857
39.970073 24.000243 40.339923
94.381429 24.590079 6.755863
65.764730 35.334533 36.564077
37.700430 84.202858 55.276046
28.514194 25.768021 19.655098
46.941980 53.456817 24.155990
32.273999 29.613887 34.573148
24.963546 84.931344 66.531225
15.855580 91.693680 15.466302
26.234845 30.354887 32.578906
59.860616 88.802500 25.397585
80.463633 61.007982 12.295969
48.522129 90.854930 2.200141
28.161693 20.595174 25.969400
39.485282 19.480441 16.893916
62.158763 12.961625 27.672271
69.873445 33.529322 37.019452
19.020765 14.999815 53.334894
81.463722 29.632836 86.857352
81.090838 43.295874 54.704010
85.260924 5.610114 63.546365
3.044074 32.971751 1.688803
39.689927 63.158052 25.167552
99.734660 43.221024 20.533515
87.230275 32.186175 69.972271
91.875959 81.086129 15.374483
22.912042 52.140109 20.942840
17.735944 21.906238 40.933785
23.914899 12.247986 77.406949
78.494586 30.862064 22.646391
29.742098 19.988319 15.181551
33.696168 48.842012 58.520654
36.858118 2.420144 55.207097
87.134929 34.918444 23.489258
60.784406 79.466234 22.434360
45.427553 84.965297 10.421762
83.000761 36.856252 37.940060
75.439660 0.886007 92.514836
26.095968 78.981740 56.138339
61.729629 21.986620 21.227234
48.130810 68.908605 22.254314
30.955706 43.498134 19.698242
52.487703 38.513030 63.940194
76.469985 70.346260 10.721798
10.347777 92.086016 0.155353
14.969160 69.909717 85.137772
24.320023 73.274565 2.108665
76.180128 60.465609 4.003912
58.672400 8.850773 9.914833
85.514281 25.440175 35.782770
49.015547 37.675149 62.998011
52.322424 67.963294 22.043272
77.181741 45.174052 86.901363
95.104805 71.131221 6.850248
35.983293 13.373015 19.175805
34.815994 41.399694 59.702213
43.055241 55.783126 36.967755
55.205923 85.649097 14.881260
1.087628 26.591394 69.031251
71.024393 12.794886 13.358931
8.557075 11.693753 13.034597
50.520435 52.373862 76.223918
6.115355 88.697531 69.332259
40.602907 16.932432 96.803566
37.695627 15.348324 17.861833
43.787167 47.249408 8.086048
15.454259 88.591788 44.192517
25.595602 3.659177 80.308267
89.874455 33.205825 73.213656
27.126210 16.536456 83.235570
77.850393 72.843351 72.039959
27.311495 10.596989 40.078370
97.750728 32.039803 63.861623
96.503413 20.183973 94.980434
12.103126 92.895749 78.561002
99.341734 3.851134 81.703726
90.106038 74.208158 57.710668
76.426640 43.624887 31.662690
63.029805 81.321060 37.386813
79.887243 72.524616 52.883755
61.015805 49.221291 13.484542
34.556296 99.619093 80.096131
91.647059 26.877101 9.244497
6.408808 67.100000 25.624578
55.656354 9.484424 74.127314
54.408768 81.020946 91.651364
77.962778 14.335350 33.484620
45.603837 68.960537 98.829903
88.552235 55.797691 69.961208
85.065938 12.167210 17.668181
12.689670 50.189056 95.871046
96.869590 4.622575 19.330417
64.147876 62.406075 79.503136
71.154849 72.922832 47.957202
12.075809 69.460240 39.710837
34.997038 29.995735 92.484660
63.248335 80.456648 24.202251
25.266967 15.746500 61.194420
93.436681 96.136782 77.031680
16.154640 95.351416 5.421952
68.639490 66.869500 59.098747
42.596921 60.565838 93.083483
73.798393 55.271990 39.795097
67.974859 41.079560 91.426925
55.872505 55.668460 83.140108
49.439013 42.596711 71.271592
28.214474 81.587828 14.771623
11.205869 58.989135 78.871730
21.257108 95.820672 87.046489
7.544884 0.200850 7.067566
78.501361 44.383656 0.792245
92.789990 26.395159 77.836451
7.277770 23.245593 61.605691
13.292364 4.255464 58.625802
5.056984 70.070123 35.432281
99.426061 22.517511 12.950557
6.888562 71.804651 43.231472
21.699199 59.534986 7.320770
26.689161 1.956169 5.185953
30.833805 7.282503 94.150288
67.404743 10.805076 12.619541
27.545750 26.798300 6.942024
22.794362 86.425204 20.176799
22.706109 91.893124 23.803307
34.805105 60.250638 43.836297
35.551783 53.419024 87.057693
98.869683 68.189731 39.043350
81.729614 24.108637 76.044811
90.623858 58.991367 36.317412
43.178265 71.313243 35.571580
43.668706 28.034946 48.987793
34.018776 81.092928 84.948810
64.508117 27.458259 7.730780
2.411098 16.215560 83.446872
89.862375 38.504921 15.966325
92.516545 86.276262 30.393775
59.659049 8.374717 70.045938
33.948039 80.743430 36.559351
71.493963 87.710502 74.364384
31.188398 20.259991 19.428807
96.387130 30.177723 11.289760
59.917411 52.530063 31.756501
28.871206 59.334824 46.508860
44.449285 3.571549 67.284005
72.750644 73.494821 12.188625
40.866947 67.770081 66.062213
36.885128 83.672507 29.989857
82.188341 6.436983 91.867649
59.337558 53.479175 91.779890
65.722747 67.130369 12.829621
20.923004 74.380963 35.374322
19.909556 51.555420 76.337389
60.073324 76.587106 15.852238
57.037847 86.649055 42.404169
65.105418 98.718393 57.342656
62.109690 95.874330 95.337691
28.415046 31.873062 48.202229
68.416600 84.509024 7.992214
88.875114 27.628747 75.001580
13.592162 33.997814 66.570832
91.997242 48.822365 50.079022
15.754464 5.019488 52.000046
96.051359 93.102356 47.110007
84.396202 98.912074 53.150576
52.955061 66.219166 53.102305
2.962461 66.317882 45.825851
89.917673 21.456754 70.111539
37.392627 81.000506 51.042537
25.359479 93.609790 6.991243
93.464946 21.595721 60.502645
50.481540 28.057152 73.977010
19.276220 81.647647 99.875563
25.954730 53.788856 56.514367
44.930780 26.631924 81.249854
24.206336 77.812080 12.007020
52.485735 33.180350 53.277766
2.072255 87.231356 68.035921
20.305709 76.235934 40.723762
29.475389 32.893414 83.041361
26.661397 77.585759 10.454292
72.336066 23.055510 65.377980
72.506562 74.725103 33.998027
26.453525 55.005214 51.888041
50.725719 66.471364 77.403974
8.832066 48.498099 66.162518
95.640019 52.479812 99.930780
12.737214 84.818910 54.220735
11.362701 27.507498 53.898765
12.756358 67.475213 72.337607
77.310784 33.798360 18.716075
62.347971 88.782123 97.759280
7.144881 67.274896 28.781897
26.000050 78.894466 1.004979
91.280525 27.120578 31.998191
6.757376 49.984066 44.160766
51.635712 95.801811 31.288407
74.302311 30.760043 95.437626
85.060638 43.991804 74.536488
46.402624 92.394557 0.677903
74.044795 46.914343 16.952740
4.239924 38.847273 39.333874
39.242578 34.449896 29.181580
23.886648 52.228908 73.108100
64.374673 41.464427 40.587031
28.248299 11.860520 35.006687
6.198324 72.939050 18.856813
29.701520 6.732350 2.098986
81.035705 48.958134 75.554759
97.967352 81.946566 35.407576
85.774040 44.592489 39.512842
67.401597 44.524846 79.455663
32.831925 88.056387 26.311440
30.448014 55.397398 26.372311
60.742509 68.846627 53.309136
72.086060 56.420189 2.147444
47.083634 87.644582 5.302347
30.024782 89.122361 42.044634
15.230743 17.567260 5.952807
70.719661 8.432662 57.808174
12.554382 6.079921 71.120560
33.568889 4.760130 42.167242
98.006905 33.922709 56.783292
41.629259 30.909947 21.600526
38.719742 88.350273 82.226506
12.656316 21.213329 96.558111
60.838115 51.716064 54.606151
77.283521 46.995078 35.151624
46.151941 39.901860 78.003788
40.212527 5.475737 13.279403
53.128731 74.505699 53.694923
9.104638 81.719194 22.240949
44.786038 87.342285 73.480297
93.714809 83.419000 21.446708
54.138518 51.281527 4.849146
80.268424 64.347338 71.451610
21.501496 84.442531 83.292786
24.806022 12.848217 10.326582
33.141282 44.923795 5.398458
48.729818 66.460324 63.779053
82.548812 21.564937 73.683495
12.726604 95.647497 48.511449
25.432499 68.311383 56.139689
0.024291 32.597621 89.388403
45.159768 81.894873 5.405850
8.683794 98.830689 44.971373
41.696876 11.009836 6.747164
12.785479 31.355327 28.079765
96.815910 4.305354 93.814514
67.262029 13.531573 27.793254
65.837175 31.684674 30.826794
12.431863 62.691759 30.859593
66.437834 47.879597 1.144785
47.831214 23.042459 89.204972
54.801497 72.063809 54.301449
47.421206 93.204480 77.115497
24.440885 80.372853 84.532694
38.015442 47.977978 83.361193
38.053390 12.408071 12.241017
75.935986 61.423087 9.716220
88.839248 58.004766 53.915650
2.512460 34.388865 1.403310
81.200908 4.119243 34.735991
77.576082 76.949494 29.839456
75.708243 84.216769 70.500468
40.445399 19.795326 0.042275
10.301817 68.403320 17.526084
78.931944 24.673569 14.436058
99.221494 7.179981 66.420180
9.824626 57.439193 81.120669
50.357344 59.450909 54.497826
56.160066 22.744762 41.607599
84.428464 44.219171 47.837273
61.560529 63.560618 44.005236
56.646119 6.828111 18.198415
6.608165 48.848633 5.779940
38.763064 77.180217 30.556614
94.263634 72.127330 87.074905
97.294586 58.061856 84.405906
61.362915 75.609223 5.071366
27.935721 62.750659 29.207977
48.170269 24.111525 48.103509
67.406041 15.588402 13.069661
27.890850 2.739949 43.641489
43.803412 30.224803 15.013090
82.678032 44.164953 19.442842
84.318878 32.561661 52.167450
9.601216 13.837248 57.839963
64.055912 8.831668 51.083163
15.998530 1.183605 16.466868
64.128285 97.673767 53.560487
57.766840 63.291537 67.121597
14.386878 46.444481 77.891127
32.444232 83.754913 96.422043
14.436819 86.681661 93.814983
6.233172 56.472494 78.345386
12.527053 67.269060 54.136484
34.260248 95.434268 15.485171
35.182559 46.457188 92.472519
60.285327 40.071612 52.344006
42.528428 34.119457 46.817839
29.368502 36.114544 15.389722
18.751664 84.021451 82.451509
33.665446 74.443971 75.598556
41.929360 26.656166 0.375330
97.493962 5.032592 10.103852
56.569748 38.264743 80.594775
65.207726 34.704300 41.609961
2.102956 64.235502 71.627217
99.639752 26.343635 12.228896
33.866085 40.856958 91.206117
49.995565 16.794395 52.112458
93.755285 44.731205 80.917015
10.594265 46.867589 49.164435
79.857242 90.090847 51.968076
20.933415 23.449777 75.077322
28.544283 10.015536 48.879985
93.325355 66.326642 3.343316
32.422432 86.659368 65.734550
7.224861 21.212263 0.422346
34.193369 48.989188 22.731020
61.047044 75.535680 35.907037
19.976323 70.846329 75.601910
29.546976 60.356561 46.867980
62.001971 83.059953 8.436592
48.863931 7.664865 12.288317
47.072386 17.491612 36.603058
56.835577 57.632721 79.079229
6.050350 7.979113 88.697247
72.674272 65.031084 67.561844
89.281949 0.556752 91.629505
19.873364 55.829370 79.955543
11.999352 61.868370 32.684396
98.266018 51.634269 92.248157
93.335226 53.770527 61.735435
43.924283 79.651926 13.920238
25.743343 54.915474 41.782485
70.608635 41.263557 20.426979
79.431501 79.284878 25.786998
17.113507 26.496753 34.326467
23.941802 61.341949 93.655031
45.395569 93.574951 86.732925
17.783217 75.209183 13.347145
97.460960 52.094881 26.017572
75.553382 77.857571 31.189184
46.856581 17.540944 78.163737
4.210263 68.589986 50.093817
63.368208 94.203479 2.333262
97.478680 67.025158 81.176615
89.758475 72.258586 85.381719
88.186244 32.209109 83.728005
83.610659 88.446574 59.038357
91.554910 17.076504 29.140144
78.576150 88.479384 98.259793
58.377056 53.448925 78.167449
51.815286 85.028285 73.039078
12.005525 38.219767 29.137559
36.387144 73.410602 59.970601
16.773549 80.882011 84.696111
92.706481 70.029502 16.941055
20.517670 78.194665 54.069193
89.313420 72.595302 20.369073
25.409958 72.785800 74.940025
81.650924 40.764234 93.069896
74.649366 20.890033 81.857654
6.007505 9.406530 60.067540
27.547319 28.119864 25.293181
30.613153 89.203103 14.380190
82.403185 70.651441 98.768764
53.311117 59.625557 44.497183
71.288578 32.053037 4.699505
13.095066 6.280767 85.397901
5.263414 27.446393 14.833047
1.831878 54.713367 84.863553
44.342003 40.091475 37.859586
55.925313 18.889487 35.639258
61.309564 86.212116 11.926022
62.269091 58.557252 57.321515
72.896247 26.428879 67.202778
51.505662 24.131615 16.476912
15.089329 33.107853 51.308555
72.605658 88.825818 11.485424
75.550047 38.533050 37.801131
75.490847 33.875410 16.849329
34.647730 2.609921 47.036553
57.080023 52.263000 96.864739
