92.639944 40.230181 77.646951
24.739622 27.769531 41.546304
14.024252 88.324946 13.153646
69.360534 21.696767 71.501072
74.975809 37.039755 95.052437
67.201894 97.176398 52.053947
34.854823 95.798653 63.245139
54.274927 77.881262 93.132654
94.585869 21.233218 38.843443
81.302773 47.086209 51.847388
52.778248 94.805442 20.909618
25.150644 33.597615 26.405023
19.593482 1.798872 1.255742
10.247548 95.291847 94.157352
66.577756 85.945841 10.371341
97.606449 2.807543 60.745811
28.743022 97.646865 74.053038
3.253537 6.529304 66.840914
16.921160 33.590664 8.456989
46.032360 24.308212 83.100611
54.174267 40.749069 13.960292
10.319780 43.489866 87.924021
94.111120 71.112430 21.819588
67.923706 57.542413 8.817960
22.364360 87.383337 80.979125
30.757236 52.196712 50.576577
23.010325 33.447087 91.986596
81.029895 62.332231 89.314700
25.407155 51.725727 5.789924
14.257824 79.137741 81.961070
61.485023 45.821147 1.291210
44.362688 6.100210 72.891662
3.523420 53.831154 78.978642
12.635872 24.913804 59.480709
13.569400 83.471640 56.916375
63.650489 75.680460 73.642205
21.330732 26.054675 8.394807
6.708784 5.432163 60.514339
97.874177 19.575351 53.738399
64.978212 75.560068 18.017275
8.056286 88.164163 22.117693
43.192369 86.911000 68.040889
68.645146 54.764847 92.582486
87.051167 96.796496 99.902197
70.779277 82.483755 88.800820
63.089884 17.053954 31.083315
95.071252 72.917337 16.668888
83.081925 16.386211 4.103595
12.238536 3.346935 39.018991
6.213301 43.430619 72.042480
21.351191 57.695157 77.657353
89.566138 73.994810 75.752580
22.884752 35.335251 62.656288
3.319611 75.025290 39.449520
92.081590 79.793800 5.737891
30.277196 43.503186 13.142900
69.682209 0.976207 88.674021
28.728376 89.719936 64.408931
31.498116 93.908361 25.593780
71.503163 56.522140 3.886642
81.810771 84.294808 73.880007
22.434418 72.868075 78.519070
32.488526 14.499310 18.643234
15.389750 85.571296 5.412273
62.036717 79.387866 8.757798
31.976819 98.174811 49.823677
62.447651 31.904825 22.790675
99.025006 86.924223 0.034354
20.208865 26.760319 96.247224
28.876388 67.950185 49.295396
12.579143 67.053772 43.195824
8.999293 9.880861 19.159697
34.570150 33.078821 50.423725
68.940016 3.451358 32.486350
90.496039 25.553608 5.914331
60.955261 25.540582 40.405022
33.512550 28.318593 19.368416
73.463385 66.234158 86.334057
99.835973 84.952469 75.706150
1.472574 70.682423 13.620293
15.716430 7.820021 73.671835
76.162570 23.335631 29.503209
87.966531 23.996150 47.761990
96.272619 53.570351 38.789364
99.383241 0.825651 85.319451
52.666234 42.508737 90.297366
3.430843 66.910189 53.439558
47.779128 18.283877 64.467624
50.873775 56.172742 69.315739
54.775745 65.068519 85.067292
64.207792 88.063290 16.821895
79.492518 29.175170 55.502968
24.549392 63.997145 86.261100
20.185305 69.752796 44.305884
17.130994 77.238376 15.999982
3.925185 92.573467 81.192539
86.324376 39.915467 57.984562
42.567288 10.539764 71.334014
43.308694 17.652928 75.582598
65.543608 88.501258 6.109015
62.640933 40.984049 37.561046
58.470781 91.022002 2.328203
37.832111 0.791929 12.763044
85.548394 95.570731 62.724234
27.615175 83.253672 61.404160
27.638188 56.115139 99.485561
64.237495 21.320424 41.494684
60.293472 7.857353 80.705348
12.022245 36.740661 38.015373
32.661128 25.859503 24.869147
83.750152 7.508019 80.886845
53.597117 35.912653 94.869175
42.919064 11.606455 35.143985
19.392612 99.324717 49.795522
70.562354 6.638794 79.546330
14.818663 73.918025 36.471562
93.415931 16.051615 13.975889
42.018567 98.566638 57.794334
75.726117 60.265275 8.181558
99.972068 19.563850 6.137936
2.696291 91.950127 47.472973
74.895763 76.275859 60.287019
92.769123 51.373123 68.821552
2.796020 52.592463 89.200697
19.773952 97.707457 40.572514
96.996098 3.239032 92.391688
10.284261 97.938022 64.855763
48.737341 28.106728 42.344567
27.315727 62.642819 42.673820
14.918571 15.662493 0.662615
98.720446 4.263210 2.667328
27.481443 39.026983 22.823778
29.678345 62.657566 48.244088
59.463346 80.354060 43.775041
13.708958 58.216505 67.201409
69.001058 64.035528 69.739753
21.864732 8.474151 14.687405
9.683626 94.487005 33.027370
11.047404 87.487964 38.380056
16.594935 23.840197 85.173221
95.280826 49.988016 31.348243
17.669462 18.974164 26.952319
53.082367 72.272095 38.133747
96.006855 95.751482 5.336909
52.158428 7.345112 51.157414
4.892812 0.301841 99.497844
50.251840 70.912860 47.223904
29.001949 54.371926 66.899372
19.998966 53.562730 78.837996
22.607123 8.241195 59.034971
77.578950 85.520404 78.083063
49.049089 97.271494 64.877865
41.799174 82.399874 38.596412
1.325314 45.399310 47.551606
62.450672 33.224360 91.279691
53.090462 25.468982 17.088943
87.466892 28.489263 52.838807
67.900182 21.888888 48.638944
23.079116 71.119488 60.079174
26.507881 4.282130 9.267008
3.505153 25.105012 41.371925
28.720494 47.932777 95.060108
63.238690 66.168843 83.404831
46.576310 59.835883 64.970947
38.243042 3.027752 80.039765
12.603993 58.365083 90.672222
52.057666 35.388805 84.906598
14.921482 1.343649 51.112470
16.493763 70.237052 80.075396
16.706497 78.808600 93.433748
49.170443 21.983530 17.378890
94.055943 87.269917 7.348185
8.164672 68.015193 54.956299
92.075782 63.314624 34.450831
63.664366 53.449597 3.835176
55.489970 58.245755 36.184041
30.119415 65.984029 11.243998
95.084604 17.756142 5.688161
13.607064 78.038912 69.969391
48.711578 71.273489 26.837661
72.105025 33.233964 37.691107
0.854985 53.336722 83.851814
81.546249 34.880796 36.312019
1.611693 1.529524 28.447308
63.520027 38.826191 11.469093
81.123238 35.950083 1.162915
17.134864 42.282040 27.540412
54.155548 20.748320 49.191594
60.369568 78.820195 63.433417
89.707870 56.554974 67.073469
95.867940 6.199821 64.157194
8.233529 66.212607 19.493366
23.160422 27.874579 55.136305
32.958193 23.974333 82.089193
54.762682 26.709427 85.887324
83.780956 53.706360 13.642921
35.035188 42.021847 6.541459
2.160235 90.272324 14.144620
46.893853 34.525388 72.402945
48.028434 26.719514 98.095530
59.305664 35.653961 82.256648
94.574780 36.823155 85.513082
47.423759 71.975975 24.036774
94.635748 45.854008 7.048125
26.064305 0.799082 51.430480
29.204964 54.009431 33.565583
55.034067 55.496228 42.328153
6.268366 14.799620 59.588968
65.425304 69.135861 34.823128
55.636628 6.226106 34.820275
77.168272 71.202294 77.054206
32.235771 71.441623 52.278086
45.087588 45.995533 17.640072
29.133802 92.748443 50.230547
91.428096 99.185976 31.575665
78.318643 18.548995 54.081448
32.191832 97.347428 38.387144
96.700305 70.589710 37.718126
90.684015 53.122563 34.693763
30.772400 28.801119 95.859346
34.816292 67.509899 35.545340
74.151141 6.165630 73.597814
77.803541 4.840626 32.638266
64.973954 92.810857 99.600845
27.825975 81.156472 82.873562
74.673136 96.635096 56.440352
15.079981 85.141215 52.397104
40.656268 45.431382 33.074766
10.201512 58.601388 85.077412
60.799301 85.836167 70.529878
35.662902 1.511822 33.906647
55.319791 9.734059 37.064474
25.882704 20.446657 11.673556
39.993531 32.660399 97.569274
56.804958 96.989018 2.212238
34.751830 18.562947 40.881686
62.296032 7.352285 49.351872
22.236600 83.537772 30.405847
92.114347 92.644656 36.945729
74.243721 99.646297 80.172176
50.582163 96.569785 14.178768
22.392069 93.709616 0.111787
43.924761 4.278721 67.224984
16.493411 56.836005 96.630477
42.201181 6.035512 25.398208
69.259195 26.352360 15.462570
45.397389 88.055877 82.215368
18.981439 13.905918 76.702850
44.031118 68.819375 96.557700
86.362573 45.645378 64.845152
9.087300 12.911511 60.216931
24.336609 55.126598 92.633488
91.445287 25.360899 97.168870
86.506601 69.511203 43.627030
84.296824 72.581055 65.944902
37.870564 23.331353 9.514751
61.510072 50.107713 30.485654
11.951222 69.929250 30.873861
11.688308 63.312036 8.006626
45.210016 89.964516 66.351497
58.518712 25.948096 54.803293
4.124214 59.682421 89.132413
80.992321 8.850181 77.250874
61.485799 43.215686 26.976901
53.127295 78.331022 25.456790
1.970939 39.318764 98.800068
49.298434 17.656618 57.529790
94.762082 12.886574 15.555162
10.458934 39.764692 17.842382
55.479044 54.758251 94.213890
92.391634 44.033942 63.799373
97.427525 7.496400 34.002320
65.355658 9.279107 83.412079
10.125522 88.856321 54.888907
47.179218 88.794202 36.017939
34.051070 78.899353 60.322370
47.961874 52.635600 95.537757
9.690945 33.544228 84.662509
5.544745 79.896909 92.512769
23.012760 88.696068 11.111069
16.045539 96.808427 63.407532
44.076789 43.039982 90.896801
92.928650 94.745461 78.278170
97.909740 91.595394 22.215102
30.628886 31.429702 16.453650
10.792310 62.293197 73.907527
65.312041 5.998154 10.882111
0.383676 35.631669 6.973244
35.408200 57.890441 28.762391
42.300285 56.633307 14.728660
88.014209 73.210556 81.999931
81.169437 26.793255 76.991376
31.937925 43.655758 65.789693
21.147826 62.780105 88.345018
29.022907 94.042618 41.532225
5.314178 97.837621 0.885919
20.668449 15.312654 81.592889
34.292946 26.232942 92.102456
64.494850 4.909147 16.340766
14.717555 68.107720 32.436974
55.852968 81.043547 14.600208
90.429670 87.212979 24.132135
20.135807 67.135438 31.716013
23.496723 8.971701 37.746407
2.301979 89.663086 56.237972
92.488796 53.387592 85.017922
41.609273 8.778287 28.960332
54.388188 69.762013 12.931635
18.712657 51.579804 65.941799
78.611372 52.935076 93.001856
7.534162 18.636268 71.575293
79.351995 21.996967 75.090500
27.096837 72.284721 86.479125
67.929997 95.572763 92.592151
44.048757 16.400874 89.620090
0.275057 99.170149 31.797253
60.768162 10.240850 97.960897
85.920448 45.427997 61.478668
12.548031 16.560703 17.779203
54.140999 34.834248 98.782474
56.291865 28.283047 37.091644
18.603095 81.252589 95.372912
50.002969 56.618073 42.133412
78.699146 54.769772 3.046384
67.984441 13.594529 7.824376
33.875971 62.649238 98.438982
92.797969 15.700813 64.555432
77.312499 97.308081 79.175054
67.165167 10.531276 11.603158
19.670697 31.594963 6.530806
20.615790 28.573527 36.404095
5.457426 18.079576 63.992600
96.942840 21.491965 21.592569
72.690167 41.546216 44.561120
74.397300 26.803570 31.712276
57.976792 69.600549 3.452198
90.351678 69.235699 27.560675
46.387658 10.430844 22.165040
58.022598 16.167888 59.749254
64.170228 95.296809 50.246599
30.424685 36.138777 94.211922
86.696397 82.492643 81.978381
54.310702 98.885911 90.432694
18.275939 52.044093 3.160708
64.646848 99.845347 0.191698
56.497560 28.298017 87.616876
40.081009 0.408876 92.562217
40.166137 10.655808 3.749695
8.333841 32.332084 27.625933
4.596271 81.333566 58.934133
26.843030 60.092394 72.169655
47.396958 14.406120 59.710985
36.401258 30.859883 82.837960
92.552042 21.452957 92.898534
36.370685 63.737173 94.890752
71.581897 28.059985 76.620895
68.179088 87.126972 67.817419
2.926687 0.085965 2.523228
6.445437 6.162966 93.644419
61.058125 78.300334 32.704404
18.371298 17.190718 32.557874
56.705259 75.692342 54.967780
75.158612 4.867313 94.749194
59.829404 4.822697 33.719243
7.928609 30.963548 59.961507
54.967810 26.341478 6.249693
37.776167 17.534188 97.986840
31.216366 89.906283 20.487132
35.039020 52.823133 39.303411
82.588816 80.243181 54.059587
30.836784 51.398009 84.725980
77.713301 19.599882 20.057387
98.867477 31.005532 65.556746
38.856906 29.367012 0.910417
98.881950 46.754873 38.347475
60.801069 3.941845 77.542105
60.704382 13.121609 71.570181
73.406650 83.741973 58.589803
65.580073 30.995363 95.668264
34.659765 5.385656 52.325408
92.003751 43.833082 98.787590
57.083110 98.831164 71.215829
78.130174 67.871617 99.527531
43.780384 88.034112 13.490883
39.489349 64.953689 15.110786
41.203316 84.459052 43.480484
97.676045 61.838889 22.928848
24.731079 41.919412 97.178801
38.663240 67.117744 58.296261
97.849504 96.840114 67.258453
80.016119 31.223295 28.231602
99.546115 21.658131 27.101694
89.958091 97.389078 41.765721
1.076196 60.003567 8.338854
36.861646 8.464650 87.750708
98.265745 68.144152 16.400075
81.947034 71.861355 31.054844
99.372007 90.389130 67.275876
75.778437 69.930988 33.684809
73.946704 14.474642 47.716036
24.681983 40.939974 56.078918
73.597787 65.876496 42.370324
43.076057 93.978487 63.797486
58.080698 92.273897 99.645827
82.586434 77.458184 37.427068
85.702768 17.844868 88.740797
71.813014 92.420273 9.033147
0.876473 18.859567 8.305182
10.660118 52.749768 28.231419
14.294737 68.262682 12.372485
76.857122 96.131183 71.279825
77.575678 83.588650 88.798206
86.970041 90.407708 92.096407
2.000937 51.435983 53.301717
69.427962 48.324599 75.565690
57.649310 87.568336 14.601602
3.878611 96.310345 84.330603
32.515410 90.982513 30.442805
35.931356 53.608245 10.916721
93.933796 54.390710 43.554882
91.845260 1.415221 62.271478
90.422868 43.615051 88.275996
24.781049 7.240848 89.339479
52.227404 34.597326 23.726688
10.766185 54.724596 61.148978
97.266722 75.887892 98.075513
8.546311 73.882083 95.122206
53.882378 64.683936 54.862829
3.888601 50.004835 64.581305
89.704295 22.348199 23.601097
98.345465 78.365730 23.553963
87.095984 9.227009 61.323611
11.811805 18.002662 36.145650
41.690491 65.284568 63.136236
97.082129 6.676443 46.177249
89.453761 35.608440 89.139815
71.915926 16.571695 14.370222
9.338212 26.092831 44.945764
78.230477 56.542733 23.146381
33.539263 27.595321 79.016950
85.279923 97.417897 7.065531
30.659040 74.915867 22.505161
15.790896 63.239288 59.584683
92.462106 99.308762 95.637375
70.196925 38.757756 82.199440
46.212159 31.579159 60.266196
51.056876 18.024045 71.177375
3.952333 83.671173 96.180348
69.772270 52.438917 53.810718
90.852085 24.158649 46.295504
95.228050 90.116581 30.588936
8.524982 69.674867 61.532577
0.690058 8.539833 68.763156
94.631676 36.484681 22.587493
37.197719 50.710606 66.100948
71.676575 40.819948 38.058374
45.979179 52.702448 63.172229
67.263840 36.622188 30.245855
28.818990 27.087413 72.070324
65.383723 90.326298 37.852558
99.051678 6.695886 17.739700
57.731204 56.040394 0.573207
52.521299 20.022520 45.789632
77.438776 14.598702 71.903051
46.610380 52.233194 19.253014
47.200622 3.138648 57.018554
60.427369 55.591733 33.602417
40.559034 76.258982 73.833178
80.555073 5.640031 7.459619
55.086493 43.481167 79.168721
34.634657 97.898444 96.853520
92.276833 77.781557 50.040736
71.752001 55.841232 40.587720
35.024021 49.875953 26.043631
75.175779 92.452734 49.590562
22.287069 80.039863 6.939720
87.862800 24.551091 65.967929
43.916672 50.890941 30.711910
73.381604 5.958196 47.116965
59.715553 62.345449 37.367665
17.419539 53.689324 15.849605
2.825277 76.191520 13.476744
11.530945 61.886427 31.171879
11.373889 33.434474 73.245997
49.282728 21.534908 3.364206
75.255101 88.014883 35.510209
58.077992 13.313080 5.856842
54.026564 52.478318 28.664996
44.880483 96.417898 17.730780
7.851474 29.239204 26.848631
52.361068 76.653625 21.191449
26.754138 77.512803 0.173372
90.125516 86.511060 97.839975
7.544474 14.981795 81.378193
42.359545 57.923597 93.735933
2.470553 77.007607 27.366213
0.166849 24.819470 86.489601
26.209606 53.812268 26.963831
59.701846 97.337641 33.703095
36.258780 81.322060 58.146736
3.656699 23.459586 94.712048
24.000657 26.280517 39.367257
31.405153 16.664711 96.056558
20.317183 29.801045 94.506994
51.465489 32.517989 77.226128
98.012279 15.305517 20.499134
58.298224 69.722542 23.052692
60.094046 74.994779 90.759300
43.656036 20.754840 80.358604
82.477214 88.352706 19.760857
88.424083 94.853655 68.076309
54.688835 4.254949 66.077720
68.971581 88.848198 27.245162
32.236434 52.476881 99.990198
55.787059 84.022424 82.413578
76.145324 53.820402 69.750322
71.965818 24.968744 66.496514
68.814837 22.423645 96.477143
98.635166 48.604212 96.483509
95.286928 25.484864 21.935441
27.116772 35.243204 42.357425
83.846908 90.015419 70.723341
46.452457 96.368685 46.537049
69.948036 82.948619 18.148241
40.986448 96.553951 2.801331
2.383020 11.693845 38.940736
71.068666 81.678601 85.318054
8.643329 67.003239 73.035696
90.917463 82.658296 41.647167
45.442571 99.285830 90.700126
32.742358 65.505971 24.554754
42.680675 78.004278 95.003960
99.257503 12.688607 97.760431
57.243461 74.092995 4.411084
39.242578 34.449896 29.181580
20.991590 8.898214 18.479342
79.334820 68.829413 22.908490
8.792348 48.099217 12.040256
86.786961 81.717762 7.779056
83.586790 36.469682 72.302575
5.093681 98.208429 90.674097
95.097207 18.139566 78.243969
94.121854 0.044316 40.133710
80.722777 68.478316 70.764130
57.033487 87.751394 30.517004
98.975263 15.960305 53.999375
34.602184 53.117589 51.695059
21.171639 51.242247 26.996487
84.920444 43.495764 40.219325
95.615524 70.527861 82.216775
69.689804 13.125153 72.617912
72.990515 5.998199 80.836058
63.190537 42.079932 92.271793
83.084192 98.160858 64.273734
4.607475 11.200718 75.735806
55.757190 63.541894 15.241058
95.553403 1.988365 75.683252
72.971161 90.804155 58.734397
83.568477 66.218995 0.421008
60.228735 46.046829 23.485231
17.735294 86.619207 18.655672
54.782167 86.313506 56.902550
93.705440 31.861521 50.265720
89.906630 40.935380 47.632366
78.806737 89.154740 26.453616
82.907873 30.899916 9.172182
29.526727 27.498305 83.999970
55.238993 10.287273 14.702742
80.199056 41.810936 94.447850
74.512070 49.457635 38.111337
65.527613 71.403757 95.546257
18.994233 50.523077 42.931203
52.653202 40.748903 49.169284
81.994012 62.870822 4.397228
97.039591 85.417832 15.240295
47.164982 95.206440 19.433761
79.535573 99.011366 51.018764
68.456894 73.271971 86.390093
49.709041 43.520355 5.692625
74.763814 46.305213 82.472544
73.874359 82.872621 10.919577
97.191585 62.923719 24.477760
45.159768 81.894873 5.405850
23.645056 70.371545 11.670509
43.221576 54.539447 11.140811
7.964917 14.057955 8.856042
33.920181 2.784584 45.375529
38.502841 72.340615 69.877038
3.499621 97.616516 59.475681
97.387506 34.165603 21.911701
10.210762 17.499914 77.577545
9.949111 64.519768 90.922074
88.051604 33.944593 11.507428
86.574530 37.381747 42.727470
57.276188 3.411127 3.713500
5.829654 83.099832 28.299464
24.047199 98.692652 57.633167
68.550611 58.591626 71.147251
93.369480 96.483966 65.995039
88.548432 25.054460 9.208255
53.063905 77.371835 53.112065
45.462331 41.787691 86.854372
27.278227 99.705147 45.579122
56.149013 16.585356 3.127608
6.704477 53.154384 98.538590
73.912437 46.633521 95.851811
49.997478 88.193343 41.677722
6.944880 45.435142 13.976601
65.675470 46.093690 56.663233
14.819918 96.363242 20.662294
11.065481 90.092768 46.796739
27.848159 2.116523 45.026221
17.984050 90.545941 85.545225
90.802131 75.235620 91.361294
22.668468 95.408879 69.554823
13.234855 37.102419 65.353104
44.771341 5.511809 42.378028
77.522876 71.892609 7.891384
86.849798 91.798625 74.716144
99.527323 47.378609 80.289529
98.033790 96.471177 98.675167
78.634633 82.289134 23.178019
80.675842 41.697237 30.643182
37.043550 15.237226 27.423387
88.889814 10.611355 31.740631
63.122936 35.625349 56.063745
88.927675 24.569405 86.679236
41.013314 81.826680 21.851847
54.169319 34.630212 58.696011
71.174787 79.811668 89.483769
51.401542 32.008979 32.345303
37.265226 89.509308 42.020666
79.629409 58.539816 58.204408
0.679890 82.239467 86.146911
48.423308 7.528071 21.388321
28.098452 79.251072 50.177266
6.098934 64.646078 34.885979
83.368826 39.860676 20.607240
27.907754 81.039246 47.773807
50.633557 28.890113 74.420551
96.600336 88.064692 76.148979
12.574752 76.503038 30.206072
69.399021 74.525981 15.265198
26.931720 25.660975 69.761665
43.521343 59.938664 31.071195
95.908288 44.520224 20.287799
82.070925 5.158414 51.316657
82.106180 50.885131 30.157624
50.195226 15.135371 30.846410
47.342389 42.507771 51.063053
20.506669 88.978100 78.927840
25.890441 92.514599 82.921903
69.653888 20.015873 21.694116
70.115786 79.744716 40.547773
65.028882 25.137046 4.524232
97.054130 33.922147 62.499830
95.675062 58.945804 62.068935
36.296970 12.938122 52.879064
92.702900 68.658352 1.950192
5.143147 3.591898 46.845668
14.534120 8.110033 95.918280
19.880374 98.295138 20.647881
36.034791 21.173224 71.177133
46.081523 18.464313 31.921834
30.860406 32.208066 64.119862
85.370673 87.289067 91.326735
68.222364 85.413165 50.356787
14.414570 3.313009 99.871157
97.232089 39.964526 86.329733
39.497084 51.300030 19.596203
79.643219 45.242599 34.768038
83.387009 29.451198 88.796021
78.125659 77.840804 83.167418
24.420177 42.992488 3.964112
49.409979 11.804133 65.250476
52.806405 97.801722 51.983014
64.123391 43.454399 94.239386
10.780177 30.264435 49.592268
5.715803 83.620904 92.802992
4.854314 21.520734 35.438158
75.665275 63.692743 26.428070
54.483365 29.050867 24.685139
40.469842 57.147073 55.657741
32.134389 78.095409 24.509002
5.482196 64.180406 98.672089
82.733160 63.191138 30.406981
60.038263 41.954472 79.977991
12.278344 82.007267 74.553934
49.029533 48.748304 49.437507
39.662705 34.683967 74.759832
66.591033 66.122637 61.639408
54.862967 56.009043 54.284122
80.171809 46.418043 19.973308
74.371935 13.121350 2.106747
26.797278 71.960473 32.379744
93.471878 95.602928 16.982560
56.914812 20.597966 97.989733
7.131464 29.186920 98.667194
42.062830 32.674219 59.319875
26.522094 63.932081 33.484767
82.486009 87.382193 13.557241
16.750498 75.555236 44.201422
47.197459 97.409183 73.106071
27.517029 80.800781 64.727057
66.768322 70.324277 55.991711
30.102663 89.126437 2.867495
2.098173 48.006354 40.576180
29.117615 7.919574 32.559428
56.287062 66.386231 73.870181
12.052219 76.102900 1.335361
43.534170 10.545855 82.643129
52.754091 94.129540 25.243911
76.772404 20.519873 14.210444
16.372495 20.438119 94.751515
90.057203 97.654172 57.093552
37.253642 2.890428 22.361074
43.270828 41.980607 5.864125
81.782704 5.114717 89.122275
8.485653 3.594549 65.105343
46.810080 61.250226 17.104321
29.378050 21.954222 43.994488
72.660500 36.716035 11.516730
95.344170 26.678426 78.166390
3.112685 96.957738 42.372582
66.081141 52.518673 32.726318
8.359223 74.637998 97.951427
82.702290 16.627112 82.951435
75.478151 35.373793 64.278166
57.221460 71.693645 54.493632
82.653923 45.666229 76.889651
91.373042 66.635407 40.054641
1.664081 38.586878 35.644423
57.601249 70.654260 62.361915
75.750555 22.008884 89.800388
31.407692 65.213180 45.741537
97.902744 85.800014 48.264746
80.834777 19.795951 78.375245
70.662538 43.854259 1.943926
71.208467 97.540673 18.446256
46.241117 19.159570 52.042190
19.697163 23.675391 51.116737
39.896737 34.166238 4.571196
30.746152 84.136657 74.518042
5.190709 77.604503 23.834003
99.831292 27.827770 98.137507
18.435874 61.935106 18.792797
19.145346 2.074996 45.090140
43.784489 72.378835 59.087439
90.569805 60.053069 15.271065
70.185419 69.190192 23.017147
87.919770 92.905944 13.519129
96.493263 33.365460 40.087729
27.305783 57.636264 26.079856
97.326255 84.719783 43.534068
62.374204 87.537023 36.261075
38.472537 42.848988 29.452080
59.597605 51.389206 55.556982
19.050016 5.085726 81.269679
75.723435 26.007646 43.895929
52.329180 5.053963 87.017714
94.334435 38.626489 77.183849
8.706664 24.960057 75.107426
94.530697 32.206413 6.262363
3.109447 14.873881 94.544507
48.106725 48.828435 97.192191
43.051577 56.683433 2.575913
37.140382 78.975987 35.701683
57.811609 98.200005 98.318286
85.867995 51.212747 35.414026
27.072768 96.302827 27.996353
32.439709 94.681496 32.228444
2.790809 8.333251 4.663232
94.229339 76.796673 37.273602
11.257593 70.476281 82.013269
18.783101 91.694939 22.915855
57.880543 58.316287 97.655588
74.578616 5.433671 18.015002
63.078648 62.159480 87.976328
48.824943 51.669541 70.204985
54.501771 76.098237 77.808992
84.530750 59.398593 16.266910
50.328438 90.614467 97.389296
37.670657 2.790456 5.924328
39.990956 19.262697 18.942377
96.829558 15.907640 74.224754
86.825520 55.391884 74.791494
22.806833 77.072104 16.300521
62.660261 41.479742 42.230283
42.861008 94.544679 53.610301
8.633653 83.847270 14.534741
31.011543 53.484693 56.782758
27.912749 2.813254 7.678542
20.368198 14.588351 99.444189
76.936322 57.254633 42.739264
7.147063 59.827233 6.523556
18.256934 5.486142 98.881445
23.660661 15.255143 88.077739
15.588427 89.710082 97.023598
27.088285 2.520162 23.743285
79.076371 44.673024 64.130077
23.831035 52.657988 91.065220
8.320735 61.214348 98.163055
81.103177 25.008737 80.512509
84.941018 19.810591 49.499009
83.106942 53.366321 68.161564
10.168502 59.178951 35.721182
45.973020 7.505223 81.629282
89.181491 0.209516 33.369957
51.677092 45.860063 58.862522
63.716040 85.607149 74.658371
70.106985 91.754493 46.133726
48.857786 52.177503 75.740292
72.836535 74.208922 67.683606
78.361406 1.237252 53.667040
16.083007 70.188857 0.748696
62.530339 8.792059 42.847472
22.347831 17.848088 78.342731
55.774809 71.264547 76.233465
82.736200 51.197522 51.393811
24.252583 46.480662 46.827800
22.614091 43.861295 71.969717
45.085486 29.572603 93.996948
49.884770 83.425692 76.188287
41.057230 72.611149 17.786182
24.573101 88.534998 91.315622
96.558585 11.704268 25.005417
79.593251 56.085356 88.495481
13.595028 91.231458 82.753683
85.484173 14.116244 24.302994
64.978897 5.317022 30.043879
41.512961 45.725626 41.832076
56.679919 57.568201 77.311576
48.865862 6.266397 79.032491
91.481674 93.814036 93.212552
32.525019 97.209474 58.034734
67.475810 3.301597 66.057615
55.675937 8.460609 85.302987
48.859619 18.825208 14.272151
77.216236 36.735663 58.696652
65.727116 96.210387 15.584962
69.481057 50.832892 14.910301
3.648069 7.594244 76.643904
76.243950 84.467423 31.066392
78.440800 10.827161 8.342991
13.943828 3.797864 6.720852
51.196958 49.949776 9.087184
99.315901 19.124966 70.706201
85.080289 31.365213 98.483874
85.549629 99.085082 15.170474
26.944894 84.515036 89.611050
14.040220 98.597928 73.074885
74.428160 50.143140 45.178292
22.654513 31.982889 87.844930
22.589267 45.975928 51.053357
26.169058 12.619411 42.829030
17.508459 68.314842 19.743258
92.791977 21.335625 98.222696
13.678778 21.471392 80.808577
37.076529 45.744508 45.320227
59.051088 26.731270 68.907678
61.786820 54.372191 46.273790
80.013612 12.029046 88.638311
29.372381 75.669268 37.926438
66.962747 32.027250 4.333688
7.558327 18.425677 42.025519
82.009247 57.715534 44.878988
38.724097 43.139935 35.737089
67.712048 27.421003 29.417924
97.002272 9.118729 1.390793
20.212917 51.825729 54.598254
91.741471 2.662708 83.527979
54.203068 35.375875 52.616847
25.054695 85.306480 54.048661
9.628251 53.330742 2.731076
85.140330 15.226464 52.046108
22.676632 82.079987 32.283504
96.891019 7.273556 66.432348
2.965312 90.526908 55.163316
58.288703 33.349094 53.251561
74.547099 85.793225 43.915147
8.401458 96.947180 9.932121
45.233227 31.774730 33.062522
71.180876 25.542023 36.980173
86.288604 36.453124 88.034243
99.248685 61.716825 85.264909
21.586972 43.678044 34.886726
37.516265 87.576177 80.958212
50.128335 15.269892 95.849955
21.627522 96.604348 80.439111
94.905513 66.449336 12.585443
22.932449 44.021297 96.609038
79.836315 83.699978 86.804414
36.547112 50.271064 94.723000
21.946791 30.315681 73.128673
99.534490 53.116042 4.183788
64.533904 30.386473 99.415822
62.378492 86.770625 83.287581
74.134371 77.291524 42.204716
63.728930 51.736119 21.227866
10.778799 54.495234 67.839892
20.353158 9.747524 42.248410
88.054739 59.496354 52.559759
97.405572 88.533828 90.652142
55.408499 60.669674 61.182755
55.921857 89.519901 34.635034
95.131776 82.234234 87.437513
97.888707 70.655356 57.505173
59.739443 13.679688 16.742000
13.177585 31.039032 66.431161
82.050107 9.155872 16.555623
66.335543 45.049693 19.394738
56.039332 1.133322 31.799400
22.472527 34.268282 29.509813
24.369755 75.988979 11.824629
98.694938 40.730375 72.044828
27.894733 58.172646 19.709279
13.174923 25.269260 20.269165
79.116537 22.462744 32.323916
76.123973 73.488516 23.362533
58.310362 91.757888 82.545397
72.970249 43.094490 58.791451
51.780838 7.702074 57.417961
69.417587 79.766580 79.025542
45.523226 81.465251 52.007152
34.292356 74.963687 47.180622
87.836234 47.903498 14.940465
36.559412 99.637734 68.567792
25.939656 18.634553 64.468937
20.822070 33.690602 44.255279
57.971822 99.928846 85.668152
30.457375 57.521100 57.965333
14.554892 1.696252 91.628363
25.626859 17.515729 82.124932
86.810923 76.950288 91.010251
45.359043 98.708608 85.859003
33.582389 76.200181 96.517943
94.248241 51.047224 17.231270
65.552577 92.784080 58.661531
95.256081 14.076340 44.416563
11.138035 89.877750 67.725102
63.464809 81.784217 58.294778
87.176401 73.525198 48.620768
98.555358 24.005816 25.532491
78.615151 87.642398 34.238571
53.436478 1.849210 47.377013
32.344803 9.443021 56.939050
31.557023 93.595173 58.045403
81.447707 65.123276 72.986076
83.850083 3.898474 71.577637
37.783290 36.202252 20.972615
5.103441 61.733368 31.341481
97.225488 42.110536 45.532420
93.120136 89.227613 2.486741
4.106637 90.867347 78.214513
61.720165 58.186795 95.731344
50.597783 31.263404 93.930176
8.445538 59.011881 16.234023
14.010800 44.496794 65.210947
84.031731 94.678546 86.948832
27.587921 81.724758 6.042139
59.189133 25.379917 99.905256
56.490577 32.677874 98.961117
22.293511 1.805516 26.860489
54.831171 60.830796 80.327439
78.695834 69.347407 14.047427
55.237820 73.868408 81.047679
99.385866 6.049771 10.345114
75.025708 41.081515 97.257613
68.704053 68.337928 97.488771
30.150463 9.275709 37.721004
77.502741 38.863234 28.697636
20.093679 67.372970 66.006714
98.298689 11.333919 95.256712
32.214276 46.262434 60.446674
82.476705 72.510903 97.915340
96.856856 3.586765 25.697745
61.120881 17.429831 81.139563
21.219992 6.977785 56.135190
17.473375 2.467624 90.383560
24.714302 0.867313 59.006133
39.351275 88.640598 53.608384
79.664828 34.869553 53.841779
32.948177 20.819376 28.148405
64.384225 68.765326 14.043017
92.981165 46.623464 66.746946
12.699438 15.446410 40.565928
45.174376 35.971375 21.982016
94.070945 35.914516 43.425795
51.369329 97.165487 6.601062
69.501367 35.829252 53.712603
20.063868 67.604473 77.934893
18.756744 61.504573 54.063178
27.237955 35.039458 35.193884
97.971639 89.264832 39.804612
37.812942 57.092538 1.752457
97.050494 34.909383 36.191759
65.373705 58.996958 55.230759
27.045573 50.196765 47.100633
85.454599 20.520772 15.452811
34.345612 71.189697 87.604501
94.288800 5.987629 55.074373
39.857651 49.895610 4.958422
40.424226 69.707218 65.665184
51.490380 64.341839 60.408995
73.824326 95.431222 84.541132
65.167955 16.234256 39.368680
89.523667 18.896653 56.407200
85.830745 12.865547 4.233301
17.548533 84.421082 56.819040
81.191844 10.710954 65.696660
54.083971 91.017709 91.704408
57.288251 65.058932 10.194284
1.424469 55.164091 33.858800
75.541306 89.069078 92.597183
58.809386 14.760834 35.562665
95.546686 90.274870 14.346878
97.392293 74.293726 59.379043
26.384105 64.939358 29.560392
97.591388 64.008783 77.343265
92.579127 37.882966 68.561793
41.503056 33.575261 45.410026
60.555163 66.837389 34.510630
83.355864 81.040029 66.641494
45.495523 17.967823 11.757826
12.246238 6.669581 56.874777
10.463868 49.414261 78.418982
15.098720 21.399425 89.409133
1.120999 47.828779 16.334033
88.258526 2.611134 31.569033
29.397229 24.548008 30.110245
67.506638 78.569593 98.440518
50.637009 83.856695 17.292765
33.324550 10.874458 14.247190
12.578158 92.947274 6.649287
38.474405 42.787289 64.883571
59.384495 1.877486 63.714094
19.848504 65.358563 55.231315
54.014227 31.856561 52.565893
55.922820 85.809049 3.043614
9.996157 30.180049 38.009953
51.901821 9.309000 98.570603
28.732481 99.072170 85.290227
96.998115 10.709122 8.158772
79.637689 75.435900 90.392349
98.233623 19.552446 63.224064
4.041331 87.632360 45.682666
63.447424 31.783689 95.288780
90.098944 56.645547 92.820240
18.311564 43.224543 5.353716
18.694007 89.533770 34.938773
85.988760 92.586966 28.263191
69.235917 5.770968 86.049529
56.006025 27.529733 3.946793
22.287478 58.722371 10.535297
82.382116 52.741272 3.206165
22.548601 86.097934 14.637313
93.602188 97.988963 52.332104
61.870048 11.503580 61.697504
99.469919 24.111510 41.456092
90.524976 68.051672 64.774255
4.280322 98.577495 70.399032
80.271337 9.362011 81.111861
36.018215 36.999126 59.778037
31.849725 22.618807 7.988484
1.633908 95.364518 3.510783
94.768529 72.024239 99.677665
15.895979 73.265574 72.150516
97.854236 77.350704 7.489262
78.514156 65.471058 51.928555
19.705775 46.284029 81.971248
97.181360 22.943131 85.931691
83.580385 53.326696 63.902571
40.648521 1.092247 55.626155
12.605546 78.707316 63.946067
37.061034 90.832002 74.107715
47.857793 96.723089 35.328836
40.772175 52.758699 70.655786
16.183021 41.133768 9.355913
94.408493 23.757370 64.306643
6.736686 62.034912 78.680548
51.238813 69.944481 92.742401
93.410001 38.800558 35.418384
42.717630 35.832911 11.030800
98.394765 79.637045 15.347252
89.238467 4.203111 7.575953
45.687146 29.666984 6.061055
79.102408 95.243687 96.111459
8.995500 44.541547 41.033427
47.350365 28.045864 70.737144
24.688691 23.738610 95.618955
71.519726 62.208117 81.374011
67.309826 64.719937 82.882962
28.866532 69.727076 64.233690
35.875782 38.601179 88.523775
95.576152 38.711136 63.554385
73.226775 10.579182 76.187148
94.013393 25.885267 24.814238
5.348733 64.329568 68.799387
95.731092 18.923150 27.900990
76.519921 33.225500 6.181078
3.591818 84.046251 72.061568
77.470543 98.663420 23.232375
42.686314 78.406121 31.947982
6.489861 21.536962 30.854653
70.638828 62.777046 26.535222
23.160187 11.376965 70.299951
4.967793 42.055423 86.430217
82.623197 3.826043 10.585670
58.862075 83.386960 0.439674
5.633323 2.289052 39.598929
77.725462 4.722303 59.555048
45.897580 70.416232 93.588569
86.556397 21.910061 66.504250
29.371969 35.924886 48.237920
41.750436 54.466784 78.051500
3.945292 85.542667 52.802959
96.901269 47.893086 30.963381
68.524492 42.657632 31.501622
79.317737 15.679201 32.419038
21.346007 48.439747 97.557041
45.714709 46.776862 57.043601
64.702082 59.479063 89.956803
73.339336 45.605093 54.663036
69.303095 16.565004 57.746032
77.346135 44.312331 5.574658
40.911924 51.062411 41.313324
87.116855 72.756429 83.421058
82.547948 99.190178 35.331580
67.722575 86.185657 72.986477
78.745888 1.451876 9.371110
64.451386 43.426138 48.802498
72.605658 88.825818 11.485424
45.178549 74.226179 97.414848
25.485143 72.564690 65.402423
98.458631 41.365638 9.450052
56.033734 55.572694 15.321456
96.281994 95.516364 99.789592
32.064516 19.501994 49.212768
81.112427 99.768899 16.983955
92.484579 76.882522 27.656780
49.147220 91.918557 87.792097
39.398802 74.637289 14.742340
9.230057 51.503435 96.932123
6.888562 71.804651 43.231472
1.647150 64.019417 1.618943
34.219887 50.813167 46.339082
1.202147 55.038404 20.348071
88.986558 51.635134 89.559209
44.082294 85.730545 24.746512
97.651655 65.510718 4.871781
17.630650 33.322890 39.837223
43.933393 18.500426 4.045262
33.592065 30.586609 10.412175
71.244023 98.528530 78.303033
99.777857 21.371243 12.586246
25.117178 76.218277 91.923928
73.535990 61.675504 38.870195
19.532301 93.768069 29.401603
75.596937 81.098343 66.439737
49.794666 88.052639 3.506193
61.428385 97.357483 31.619447
26.089891 25.550881 58.393127
36.832418 12.870658 46.019916
83.036761 80.619154 16.508866
22.571712 25.747887 17.938607
24.585530 58.463191 1.000881
42.540227 68.552166 13.742728
7.023626 29.058985 53.484138
54.195611 38.655891 5.634531
98.321345 30.681475 77.243017
63.931380 13.390977 9.131325
86.802073 79.888776 44.661338
2.477824 23.491891 79.937606
72.932687 50.056789 97.216175
6.859558 42.832390 58.650151
50.632706 24.986610 56.463389
94.518493 8.377130 89.739335
6.702656 12.050736 29.958276
22.595765 77.755157 70.258808
47.309125 68.681447 55.906052
87.831076 7.037465 45.656108
98.675173 63.059094 94.309849
29.289283 96.123315 97.319228
65.901292 59.216948 96.662078
73.099801 49.256564 13.142898
93.363974 63.558281 79.428718
56.672305 92.234126 68.209552
96.954038 75.402244 27.548408
17.028674 37.324955 22.439453
67.296084 71.520984 2.083296
73.428259 11.859625 58.690341
32.050152 90.458617 87.496499
35.825025 19.963361 59.283300
4.746946 98.669092 16.686502
28.160951 80.548302 19.495837
80.758795 51.121122 87.418541
34.214547 98.122785 92.709086
96.548524 42.668788 89.787383
18.889535 17.663701 59.870038
82.403185 70.651441 98.768764
9.636573 43.258874 15.799683
98.367727 81.912595 17.652590
20.222629 37.649225 78.332785
65.996506 88.232885 74.930302
42.548022 73.769353 40.399568
7.315622 7.583924 19.559455
23.299621 23.826889 22.530836
51.732060 43.301918 30.530233
20.461607 89.124746 88.109924
69.167584 24.944400 52.195246
25.215724 52.104508 99.512730
20.436393 62.334568 32.319867
57.062862 39.976050 68.670174
23.367121 57.609458 46.600347
33.682111 77.345184 93.440026
25.364887 26.773994 10.097501
6.160943 39.309713 10.136285
0.829052 87.759029 21.100300
91.619711 3.222462 89.646562
78.503428 36.062101 22.224148
79.716837 5.226142 31.923581
15.335881 40.509463 62.807895
99.016629 39.553871 93.145932
69.670637 8.575731 94.814106
31.120019 37.236012 61.664309
88.775009 49.177640 53.071798
66.858422 56.135956 35.070523
90.744278 92.640136 41.928918
31.324293 22.746805 53.880540
80.352272 83.547649 44.103341
99.071829 23.602535 79.732200
73.960341 74.963036 38.975657
79.149361 57.786000 81.788981
85.680393 8.349476 13.565603
75.489311 52.090466 54.214815
18.121113 26.145626 24.969397
79.590936 54.776030 29.184853
75.787831 96.269581 13.126049
61.497334 15.033955 88.299491
22.782993 44.224588 17.676552
25.415279 92.026590 35.764459
53.329405 32.390612 27.302395
65.607118 32.891073 11.956660
2.538767 72.770928 7.912466
63.455855 7.059454 12.252040
46.315830 37.231011 95.706000
8.795902 0.166049 80.877719
82.107238 67.030576 62.790371
72.226830 80.108492 52.705246
25.226055 7.233313 84.423656
83.155595 59.515611 77.443861
96.981556 97.344013 54.227434
98.066786 43.516363 48.844228
72.582526 29.110482 34.640688
13.165123 11.730954 32.209163
10.752823 84.506275 90.647477
70.330158 12.193267 96.795858
60.152327 44.412225 98.947360
67.197988 53.676173 97.891798
32.356149 47.873812 91.476337
59.931182 19.733445 15.368544
14.456881 21.242587 14.958792
13.110991 39.620481 14.201651
50.475744 48.949228 33.681896
46.733368 55.082923 33.914762
6.402869 85.989454 67.302135
4.747490 59.526768 80.357500
70.836887 41.704429 13.059346
68.413918 49.306854 4.630673
53.796225 32.016536 45.228380
7.438585 26.935370 74.552710
76.247013 65.237851 57.210873
0.133390 73.502779 63.856077
21.418908 78.785899 60.810947
86.050107 40.696782 35.705688
96.852988 28.379187 8.224084
83.708618 14.424062 98.788535
99.710739 56.037448 57.968591
62.974349 53.044025 87.024215
96.385097 64.864928 49.628667
96.384194 54.667741 45.169896
34.318077 44.282526 81.735111
61.830261 90.154273 21.423209
99.232272 4.532047 72.031400
82.946720 79.998492 28.790465
99.630472 56.544663 51.663253
23.851748 13.354435 50.823547
98.666337 20.160846 98.743931
92.324443 47.552230 34.346667
30.666334 24.824371 99.960860
44.975194 16.444827 96.170007
40.592558 39.043472 29.520199
87.947980 66.698252 48.430539
96.754025 97.695282 9.185489
23.728408 80.764023 65.152653
37.118796 5.290895 76.401830
34.538726 58.096467 57.567798
57.615565 48.683180 89.844303
56.723777 78.791141 46.786791
31.244436 83.613190 99.744961
89.762097 61.004301 5.355100
14.727607 97.421775 91.610749
41.285831 61.407159 42.994047
84.980055 35.317162 87.084952
20.529450 3.331238 55.131198
91.476451 84.997669 61.562943
35.195126 92.717293 11.833899
64.643333 39.400560 32.507314
81.789522 91.120856 40.178046
81.284920 17.419968 96.714406
96.511759 92.037164 55.552173
7.076204 79.642137 46.873237
69.990121 87.028203 43.950065
96.249063 87.953310 25.421402
78.646470 97.139845 47.024565
93.537534 98.744555 82.392335
89.234680 70.499605 54.768808
20.193910 28.249818 43.000556
80.980700 99.822570 52.711244
17.802237 95.660503 47.707316
23.932187 35.857353 86.587630
43.483018 96.634757 24.482429
0.672661 56.337341 44.731652
99.492715 97.163445 91.302133
78.137710 35.677470 99.031733
37.586583 16.126021 94.360107
19.264962 48.729028 17.772688
23.165292 27.930209 59.544813
59.726763 99.007725 43.769470
92.396771 41.204675 10.253921
39.862272 99.858449 17.203754
25.615291 39.234945 4.880394
5.152771 49.845641 10.583429
91.144425 61.148011 82.927120
7.441287 4.463834 11.777511
61.375352 90.643601 45.501102
71.751587 23.356860 81.035777
33.161211 83.612722 45.903372
34.944276 12.007157 5.894974
61.961838 63.914216 11.822513
28.182677 35.270418 98.127655
39.931988 71.514816 77.825965
97.074266 94.232285 43.290739
78.054600 99.846247 7.073729
57.009670 29.780347 79.998881
46.619256 83.818867 87.806628
32.911322 49.007406 75.431855
42.432872 17.696610 16.143150
41.551553 59.426917 85.496427
59.644508 63.527064 24.981568
70.512516 6.145052 7.409449
96.739586 12.567481 57.676768
8.260166 74.699637 48.824513
38.059278 36.949231 81.151138
53.380108 15.050287 23.388218
97.910868 79.622221 34.994442
93.993982 31.701402 63.943572
2.074216 23.026577 3.793684
67.972036 35.764141 98.899156
25.000860 21.517771 39.544904
20.750105 90.680502 54.464421
30.919698 21.330739 57.171266
91.165144 11.647606 55.377892
57.158940 21.140612 36.542574
99.808735 51.437366 30.108219
44.162043 93.853869 95.100276
88.988918 91.720364 61.339024
44.162424 48.044054 99.271452
70.280089 35.271280 89.478388
92.452755 37.395129 97.561180
80.044507 97.380794 25.253610
15.817459 76.509467 10.159668
3.707640 89.900908 26.647441
6.894528 71.352428 27.429696
24.410291 95.984905 14.509293
81.213812 57.521492 11.116269
34.953815 56.446328 19.154049
63.514016 85.722193 99.628580
99.749407 57.072895 73.233835
88.907443 0.835828 99.211774
79.638435 0.042758 67.929968
35.503359 30.745299 56.413693
86.836947 24.662617 58.100396
76.774187 64.271710 66.660080
21.522141 4.878939 66.215321
61.328318 39.695091 25.645651
56.516506 15.610711 86.677728
19.748380 5.814509 77.018958
64.733507 81.034954 25.471848
64.275716 99.822067 28.030408
49.352440 82.541802 32.739175
24.629694 96.033823 7.517722
54.637942 89.687224 9.601307
23.576361 67.760135 97.849666
79.647712 56.884013 67.142329
97.169815 51.219478 22.168712
54.481866 97.411382 47.234725
2.076966 96.419754 53.282114
26.200269 60.673125 66.495605
35.922997 35.316351 39.175443
93.435132 96.724486 18.700846
16.106424 23.849531 45.928469
37.960822 11.314332 35.889505
7.518845 26.144833 94.604104
55.400712 92.064167 76.812583
5.366202 13.219651 40.385053
98.849422 99.326024 5.000515
11.098261 39.005154 51.922449
42.322931 41.505662 97.720719
26.410411 99.873792 88.557907
0.128029 88.642028 97.041622
68.554648 36.330738 23.946928
82.072063 14.700220 39.650286
43.876704 9.769799 75.322286
96.161506 98.417937 31.547090
83.996802 60.668073 97.872686
42.045137 30.408443 29.230086
66.055877 30.515340 18.523073
2.709730 76.464813 99.661837
4.780577 59.071709 33.479792
9.216113 99.025597 25.943133
9.751385 61.081691 44.544216
39.157140 41.065409 53.266161
34.823086 91.152476 94.633990
49.292680 69.204162 21.563934
61.407873 16.505483 50.861342
98.985262 31.007722 58.612987
74.056675 50.941708 22.121482
37.038783 84.715213 36.660715
83.802162 53.707671 98.916412
97.110380 86.066450 98.153549
25.103241 63.579484 89.880696
89.485072 57.435199 31.387768
2.209769 27.426269 0.467488
12.369015 72.934498 40.018353
47.063280 73.334465 33.346002
11.783795 84.880644 16.933486
97.142321 98.667403 62.989696
97.895770 87.388916 84.599647
56.115370 0.957051 40.549017
13.828329 15.299674 69.428230
70.632073 83.623392 61.655977
86.144993 61.988460 38.584488
32.181748 24.882902 54.467562
81.563922 89.621052 2.825528
75.509934 25.217428 60.898996
41.143682 22.221999 39.130874
62.693630 6.264631 66.607861
96.183615 89.884388 57.719414
17.357003 38.018844 5.479329
71.915114 8.472296 40.783153
10.475327 7.967239 8.058067
15.666963 11.421299 82.868157
82.176345 96.386445 76.413724
36.206532 8.337253 72.696600
99.607752 40.955587 66.052763
99.144738 6.104476 97.873327
46.528536 7.697811 97.206654
25.598071 71.225885 84.264084
97.115600 52.997092 67.896428
79.928937 98.446477 34.078107
99.466277 77.123294 92.503227
48.434262 10.305074 62.995505
57.079225 62.727036 65.852267
43.932136 97.385650 69.564211
40.073537 94.088401 44.381057
19.323701 42.256691 90.690751
11.583912 6.563762 16.816046
55.430664 23.627405 88.554304
63.569307 66.313616 99.825852
75.916179 27.498029 2.970213
47.864249 73.391940 12.407645
41.266364 14.602485 98.786694
76.031476 11.255954 30.796650
45.370357 96.709485 51.449318
68.216703 8.314025 39.845735
5.130016 44.612725 5.098396
91.592423 88.213137 85.778866
7.534509 98.684405 99.657572
37.457873 57.515977 86.145205
53.104808 72.541611 98.211845
34.121168 50.920734 63.891876
85.846730 38.576134 15.379552
3.206861 42.919418 26.762554
72.888193 16.691745 58.929091
2.265381 16.324524 98.225569
99.476946 32.728550 96.593761
37.859239 4.931186 68.380395
97.860078 49.347195 74.428192
38.792396 26.092998 97.574666
36.337284 99.919269 78.341310
21.927111 99.544698 10.162087
1.120273 68.333503 57.624330
97.421363 38.573242 4.453900
57.770351 72.049205 28.818038
89.175725 85.765672 70.303479
76.950387 92.559470 17.913458
1.365034 32.159019 28.605785
92.847297 90.792561 50.658074
74.486236 70.129908 90.749564
86.090570 1.254157 60.095119
48.460341 98.682110 23.350386
37.969503 67.433282 45.367768
13.441442 6.280840 25.499563
52.057806 50.300453 19.012633
51.993752 22.842035 84.982856
35.839915 60.368912 46.268355
55.499462 58.979748 74.362506
23.700111 99.672441 93.762933
72.459336 99.007274 27.758605
53.944267 97.110616 31.486997
63.160035 36.215028 2.892863
93.201633 54.440752 99.878044
25.303108 63.101428 13.797043
13.808213 85.708846 31.894252
12.153804 45.227548 98.930421
9.944455 51.745797 46.876746
96.812392 63.845789 2.759918
67.225215 44.862624 96.864664
29.484603 98.251888 68.715982
34.241979 10.102465 91.285257
90.158369 96.444667 97.328314
61.834046 97.675911 57.375492
9.259946 16.248643 60.091191
99.610916 38.675086 48.185171
47.223518 39.746415 64.237716
84.448841 57.323344 83.576930
5.880165 62.342022 99.761128
72.277749 23.547133 67.972401
41.439477 29.872922 79.601029
64.381472 18.740380 72.927362
29.005491 66.740114 56.973807
36.096317 28.058825 47.602674
12.437068 50.474672 38.710600
34.162288 69.744103 20.550466
12.043057 97.760651 38.665479
32.486563 34.781064 10.434756
5.139617 7.221679 86.920036
41.545286 78.010356 49.311176
86.502099 4.233171 27.640898
32.055518 99.758606 48.071276
48.656970 83.377274 99.454666
30.864368 0.562435 66.105729
29.649587 20.551518 20.352867
39.497796 83.806750 1.666770
43.180852 73.723871 84.157425
8.545392 86.939615 99.434344
43.734803 96.773409 14.418613
22.934186 67.293866 34.476906
97.757820 99.528652 39.725258
58.248291 0.511443 97.218965
80.233947 28.781478 37.568326
45.925785 57.448182 39.545189
7.944182 34.853301 84.924096
11.737668 97.872197 40.316699
7.762263 96.667894 73.918029
31.185031 87.214860 24.065012
14.431846 44.749861 38.255556
89.636156 28.679397 88.110483
86.246287 79.733479 78.299292
63.493809 93.839844 72.853752
96.663622 71.542255 86.392152
1.422937 71.384434 80.158955
40.967705 30.611029 20.431931
20.547217 22.014549 97.417153
34.507837 46.111303 12.381665
96.095323 53.188994 84.186172
6.898017 44.475405 97.230635
24.991206 0.442728 99.958524
76.693706 27.128183 16.062170
84.614751 96.174577 80.550476
26.863479 51.724944 22.872048
96.704502 42.960790 17.959647
21.743464 98.801191 0.768352
96.835349 52.630424 95.814290
49.825130 98.685307 36.796025
7.864165 79.017302 78.668490
35.302155 45.491374 21.705647
23.534847 65.671342 93.790844
66.658203 99.468465 58.444451
64.706859 70.475491 24.700302
34.843396 71.480218 71.980065
85.528350 47.614838 96.980072
58.160415 53.941154 78.702078
97.523764 20.945193 45.853978
42.979684 38.277850 97.844446
66.603347 98.784541 87.047678
92.128603 66.750376 74.495042
15.486430 15.296479 9.198328
68.444446 20.529413 88.568213
97.672271 53.826287 49.343810
17.789344 73.682877 99.061781
36.587452 87.922531 69.763746
99.490071 24.342931 82.483348
98.863612 67.578321 64.188722
96.292656 31.873659 5.457889
98.440133 12.461125 69.742256
77.513400 40.082397 30.702950
57.255430 4.623219 19.264297
46.592994 59.802030 98.103555
17.311453 86.762571 97.274413
95.661577 83.289999 17.435442
48.440950 93.709909 60.941857
67.557848 30.081943 45.349742
98.583258 73.357530 76.691443
66.438414 24.279182 61.508238
83.054063 31.211517 41.238239
53.532864 85.342605 94.986716
26.433640 84.784008 9.074464
92.856335 21.459815 48.039236
68.483869 99.511682 37.168502
19.854267 57.012130 67.781124
13.686189 10.332538 98.280597
53.948349 19.108379 99.180225
34.587717 96.397778 13.594000
