54.427189 35.756388 69.025536
47.570002 39.967589 72.180980
51.312256 63.784418 54.289498
47.298746 44.315227 49.826450
40.535203 45.723041 70.160209
51.771667 47.256991 21.341444
58.397465 46.597383 54.281736
41.695842 46.264837 40.648170
61.379896 49.049465 72.303629
56.037627 50.664924 65.011303
46.729524 37.669726 55.569119
57.967044 39.571287 79.881052
44.251123 53.964772 46.283970
39.583681 49.627766 24.558337
62.123989 44.104152 24.032096
50.421987 51.271462 36.211218
37.656033 52.708858 73.382189
52.810713 62.011401 40.374080
49.151226 64.186078 41.148488
52.253524 51.722362 20.818488
58.504205 40.819178 65.441984
53.485377 38.701240 73.451677
59.503085 58.836876 37.870791
58.816411 50.637632 69.478910
59.888365 50.784485 47.765038
46.017541 41.907853 60.020618
48.344360 36.793861 27.146138
57.485331 46.632246 64.714268
46.624813 64.430484 30.740410
59.002597 55.028418 60.997672
53.834060 39.567461 41.558470
36.781625 50.577788 62.075784
48.257618 45.355763 79.608570
61.964968 50.143736 37.393503
44.077765 39.785468 36.505127
60.020686 50.693210 69.328687
44.404784 52.385966 39.835230
38.402458 46.158500 27.183442
44.806940 60.596081 54.688690
55.872654 48.470276 42.349504
48.012302 57.152097 55.925801
57.798861 53.364862 20.826519
53.949855 60.832835 54.621250
39.319146 48.783347 34.955811
40.965417 41.869257 52.718184
50.787722 64.868978 56.462613
52.069009 51.033605 63.130378
56.286187 58.318746 57.690590
42.317485 62.318296 40.185991
37.405349 49.800024 61.564990
45.710299 50.775398 26.713885
43.606061 42.936482 67.807951
61.844847 56.259689 46.258507
60.918380 57.394618 44.075172
60.023477 57.663280 28.941752
44.008356 54.550263 77.268744
44.838024 63.843972 21.222827
52.210445 51.201325 60.394563
57.297917 39.774186 29.361678
47.057891 52.388002 20.826548
60.456707 39.343836 65.029631
39.478207 55.702591 29.878854
42.764843 54.663702 35.592671
61.913187 56.009292 23.315800
37.514990 50.775722 73.169919
48.760776 49.469535 76.771876
52.010264 49.600143 21.281323
38.490497 40.982478 31.974061
50.717716 44.941203 24.754557
46.408993 57.990079 70.550605
38.590411 53.074059 65.257078
61.960332 41.698002 79.243837
46.112835 38.607033 33.960641
48.701649 43.876242 40.735702
36.501417 52.600540 60.454123
45.796332 56.697244 41.640919
59.706150 40.750329 39.066618
60.471561 47.934577 56.899501
53.025827 55.599872 45.123170
53.333941 40.919697 65.522982
49.387658 45.790998 58.529258
43.132026 41.110612 59.645140
58.281327 46.173290 79.234291
61.263221 46.282555 25.606278
59.941421 47.930701 21.310087
56.369492 52.710102 32.870793
60.743356 58.448683 52.571220
45.256467 62.617654 60.889841
41.508970 61.489664 25.931808
53.900504 42.913759 66.309012
57.996879 56.647783 22.086963
40.658907 58.775068 20.553177
62.545062 48.368973 58.015591
40.991884 59.033566 28.401953
61.854712 56.713517 79.806137
36.933340 52.435524 56.200184
60.149352 54.866200 24.575197
47.964790 64.744024 44.559385
47.519328 53.274195 21.855929
49.685516 58.889678 78.218340
55.846464 50.074802 26.639715
50.290954 35.680173 26.646243
39.139909 43.039533 63.104695
49.083486 59.453167 55.963302
49.211676 54.963861 23.941644
50.922907 64.824682 49.563134
41.146607 46.537412 44.087432
48.401863 45.955841 69.144443
36.867138 55.036189 41.752461
53.715076 56.871341 52.746839
45.080326 52.844887 65.647798
54.530417 43.353459 55.647586
55.853079 54.896976 51.083011
49.884855 43.116472 70.587186
46.851816 62.869895 67.796075
44.570614 41.651088 46.046446
43.440357 46.357663 52.966692
63.534964 47.387090 48.547215
51.727429 51.158776 56.917303
62.145316 58.776720 50.431437
45.164103 60.129441 26.600270
40.062626 39.628336 54.607883
44.610609 57.751631 76.685876
40.750198 43.313521 34.884553
48.903226 39.870366 31.575187
50.128210 60.420858 73.252375
41.605986 46.844506 62.690405
35.898294 45.543327 65.279520
57.979346 60.237918 41.840048
49.042254 50.063530 51.647387
49.584310 39.612288 21.212473
48.365552 39.519300 24.718548
51.246841 37.705049 26.138250
42.014115 61.817452 78.879494
51.518711 60.608078 47.242274
56.650706 38.215285 62.004004
54.913100 58.330153 75.102669
56.615578 58.500006 21.000867
51.765468 37.920856 79.744420
57.077422 55.491435 75.496070
58.381967 46.839259 49.054238
58.029551 59.739058 78.788707
58.148594 42.406930 55.863706
50.505163 56.448574 45.259003
45.803555 58.965013 52.635351
36.947753 45.958516 77.460075
50.292921 47.468029 30.197214
41.298015 58.282246 70.132973
48.322055 42.483361 42.514951
38.210340 58.034055 73.233955
46.196586 52.279175 62.160660
44.494798 56.404627 31.983901
63.608514 45.892501 46.708774
43.325042 37.468802 61.269895
45.959352 62.414762 25.188499
48.410980 41.056695 66.578782
57.822712 58.550276 77.945212
57.919112 50.556337 35.007580
51.558617 39.375947 77.364518
61.561429 42.068312 49.984546
51.200404 35.915319 56.611395
62.616882 52.191193 57.593245
43.594815 46.716931 77.879756
43.784871 63.052404 71.920909
53.526844 44.774331 58.363848
49.287003 43.088762 22.858909
41.428207 56.283982 29.400926
58.531126 48.936933 67.334317
48.922651 37.676258 34.053661
48.242636 42.547153 53.903928
48.496079 58.464706 74.584254
64.500467 52.672894 72.129915
54.331274 48.173353 38.636537
44.947301 47.040042 32.422408
60.037500 58.351134 63.071367
56.307710 57.865073 43.397337
37.281397 48.054086 36.484749
45.836603 38.519767 38.187699
59.713223 61.430103 60.386900
58.579587 44.742157 57.160385
52.807655 37.350763 38.342555
50.258131 53.906189 72.462709
63.221897 44.925273 79.094424
47.168949 36.476803 34.673954
59.514425 53.059942 65.662724
62.699890 56.924350 33.859735
48.003596 60.008411 65.169337
44.789916 49.653749 75.797005
46.533586 45.614705 50.206373
40.879582 54.171598 26.885808
49.656675 43.536693 29.331064
37.651835 44.692129 41.869068
49.568815 48.146492 41.013769
45.041584 62.037769 40.409753
54.529210 47.800248 31.649564
51.688689 35.582156 34.319407
46.160102 58.238261 23.031427
52.159518 51.909993 32.531883
42.235351 54.516725 59.445790
42.117126 44.386369 54.888906
40.559273 48.992361 26.462527
55.770584 57.940283 37.420899
46.047783 43.576831 54.668913
47.763095 52.086580 52.910544
43.911119 59.510738 32.767290
50.193902 55.177467 52.496550
45.682268 62.886816 74.472319
57.334581 59.764244 78.919314
50.844869 52.102742 55.467809
58.389620 50.723882 26.255245
39.751668 54.127305 53.991553
50.574405 39.105528 63.928010
49.906391 51.932649 73.800615
47.039076 54.728517 40.846006
47.223254 50.357476 22.926543
50.461688 42.426726 29.592009
46.720311 59.906251 42.535302
60.518342 57.815294 69.294065
56.472900 59.818491 32.058228
51.020634 60.329303 56.637123
57.431303 61.938736 27.378326
54.217798 59.016513 61.436584
60.252298 56.314183 76.300025
44.253941 59.321484 50.175917
42.367458 47.326068 26.509167
39.708261 60.164656 35.282319
64.265802 51.215748 25.446349
61.285060 49.530871 66.784138
56.378430 40.537247 34.560730
39.753514 55.110061 53.352371
50.883666 58.014309 65.631148
50.591048 53.728819 33.615504
48.418828 50.606085 25.721287
45.315821 47.979441 66.578317
40.971759 57.148251 20.272272
39.914521 41.509377 46.902756
58.530880 38.036960 46.558248
57.556404 58.413531 76.574042
57.489253 39.372559 48.362191
58.284094 42.709983 63.589892
56.596872 57.208934 70.210109
41.054835 52.600054 79.640067
50.341252 36.719601 49.493227
37.698818 41.723518 73.102052
59.427511 55.907159 39.809847
59.901508 60.286894 58.328963
52.598901 56.138080 55.431796
45.516659 52.124221 48.679184
49.668777 35.990089 65.704427
59.631823 60.697143 47.797815
45.618182 50.640073 61.606692
61.714718 43.628389 56.446492
51.238724 43.553249 31.367940
51.060466 60.621369 20.002807
48.294187 38.916897 24.616184
56.129146 60.419091 78.289546
58.160455 46.910756 57.276412
61.932740 44.907934 20.269625
58.920374 56.669906 52.444748
56.006838 41.792496 50.906069
43.872252 47.371342 61.603950
41.776358 53.023000 31.651416
52.792495 38.583592 61.298639
42.858595 37.289900 68.730690
53.339332 44.438569 70.578773
56.750653 48.977126 20.497143
53.398617 63.416563 40.774294
45.293080 64.041196 28.393690
42.785015 61.213446 61.393755
53.804220 62.486550 44.861113
50.816527 53.606727 42.868878
44.080854 48.791068 28.162197
40.913172 59.511281 60.083500
44.582093 43.859847 46.605357
52.095996 63.805211 27.814361
58.323730 60.755788 21.150076
55.778920 60.624382 58.381696
56.700203 50.269883 73.336925
56.259863 44.251335 35.956507
57.744268 47.988047 69.987078
60.580587 45.668046 37.834369
46.105720 53.656506 53.474862
51.859028 47.656922 20.868042
63.399950 46.925326 33.164320
48.941266 46.160936 25.704873
46.344356 45.980813 55.357243
59.165316 40.711072 63.635870
49.211630 41.257320 77.600662
46.957284 53.015463 63.445266
35.883442 49.447123 65.311034
64.143747 52.785539 72.598942
62.331357 56.859864 53.825672
55.803480 36.680800 40.016912
43.240022 52.490523 59.214026
56.903762 42.808051 30.363898
42.843029 47.613999 36.130993
47.389304 47.974309 64.519434
41.682250 42.994080 67.688713
43.808971 39.833611 63.118366
37.020943 44.204952 68.713106
51.459461 59.858503 43.242988
42.517516 50.565904 64.759931
41.602772 57.093573 64.762339
64.173022 49.871185 62.382440
42.205279 41.318683 65.883984
56.947399 38.486200 66.514088
62.234146 45.772953 70.980364
40.742953 51.978476 42.297570
49.519022 46.407095 35.524757
45.964686 53.400404 24.366205
42.146853 48.941068 28.630403
60.583540 50.604236 69.314548
40.757521 53.266459 30.876737
51.275474 62.810338 41.536309
38.581326 58.563180 49.999495
53.912993 40.775114 52.704175
40.131971 50.479155 75.015880
54.655286 57.548895 70.484037
42.923111 38.148539 33.271654
50.887090 41.847496 41.079616
40.405130 38.645811 60.124696
57.999467 37.646590 66.040200
42.796531 47.973658 67.389751
51.441016 40.581969 78.790766
61.813501 49.412202 48.586250
40.091622 42.280541 61.199401
51.806672 58.535029 79.860876
57.161327 45.014831 66.208247
50.507191 53.021895 69.147405
41.167571 44.261416 44.835650
51.881512 56.599226 58.077174
37.968347 58.245719 62.158906
59.606490 41.818552 39.380852
63.309178 46.435359 49.111305
61.668318 48.976367 29.488933
45.044424 48.910898 27.183520
60.152347 39.125098 28.724725
44.404768 37.064933 70.200527
35.141000 51.333966 26.072695
39.377413 55.649692 21.518304
48.354285 38.295629 69.587470
46.913698 37.436498 53.752479
49.244218 43.639093 54.580166
61.481239 54.043539 20.855933
56.489473 60.330119 29.285684
59.269955 46.047429 42.805286
54.638331 35.784643 66.443050
45.869554 39.750138 74.091364
48.224351 56.408573 77.058951
59.186700 44.031608 22.552665
37.753320 46.990803 26.579900
52.670167 62.426228 72.383058
57.534672 55.159547 58.516682
55.279967 59.663585 25.421656
55.415959 45.148523 24.154346
41.893095 39.046192 55.417873
49.112099 36.771652 70.307454
41.654572 40.957158 23.849328
50.198198 36.316298 71.041186
39.222767 58.832217 44.739534
58.714426 55.371343 61.577166
49.365618 45.006014 74.808719
44.600360 40.674833 65.922026
46.639744 54.535428 59.873311
45.057469 46.613562 26.570862
58.593223 61.184631 27.238510
57.166771 57.924156 30.229582
55.844401 40.762637 35.559358
53.053359 62.997306 30.571533
62.436906 43.820370 56.129645
41.897992 49.802241 75.907461
56.572370 48.014488 23.571497
36.387480 50.775307 70.263774
47.671141 59.762228 50.853161
43.951893 53.827848 48.134047
40.596168 46.623785 76.121069
61.971393 56.361431 39.164605
40.436968 45.246948 78.310816
51.689573 57.917975 63.093235
44.543494 52.415425 47.831587
62.710850 57.056931 66.204825
57.129752 53.027797 29.845303
53.185192 46.185333 57.193208
37.335962 44.811390 67.791376
44.986701 54.177894 52.254422
62.377315 50.932038 25.882673
36.237525 45.411754 54.699735
51.202754 63.511702 66.185728
51.560571 63.101513 72.829349
53.549691 41.432484 37.134046
50.675435 60.944732 61.010262
48.909863 43.533542 52.654557
55.156530 59.748593 28.203124
44.363244 42.210558 74.895065
38.311812 55.548881 25.450709
49.772345 36.025023 52.038545
53.585068 47.852095 77.281877
61.825497 55.557919 67.188675
43.854083 54.067624 28.272620
44.684792 43.610331 28.814042
44.452564 55.774138 70.170658
50.594389 60.933730 41.319682
54.512183 43.495513 75.200880
62.724867 51.031802 52.836069
60.741398 47.601410 46.956868
48.618486 47.424092 62.922879
47.667553 42.703379 45.544013
57.156901 62.958097 78.702346
46.845428 39.935037 62.493381
35.561005 49.003883 23.658019
49.464399 59.916334 60.324286
47.552286 52.117579 73.064439
59.972773 41.039865 75.843503
48.251190 40.040531 29.693888
58.649671 43.930200 28.552008
63.114741 51.088353 77.490407
47.866586 51.885280 41.102519
53.989647 40.893660 71.925670
53.387538 54.996078 44.769962
52.911947 46.804131 34.351316
39.198072 51.253452 68.687718
46.365240 38.656290 29.202532
50.316883 58.446751 22.048213
49.379706 42.605649 51.836920
52.335785 41.215615 62.306194
44.365986 47.061357 64.288851
55.316191 62.987152 57.595491
48.636442 36.809141 76.514484
40.493509 42.858186 71.807694
57.977372 42.563544 41.257896
59.475988 53.205285 52.711474
56.011004 62.268849 31.143807
41.978876 42.876409 23.408043
38.033288 47.659512 35.248727
42.602785 52.694837 76.467986
63.860324 45.783638 62.403331
43.695488 48.477635 48.564640
59.540008 60.658599 24.880171
55.763761 60.252318 24.874707
62.309728 52.977395 72.199362
52.900136 64.636334 79.591801
40.912751 42.957868 40.081835
52.456937 35.670077 37.665538
42.072438 51.396937 69.775144
63.488773 51.161675 33.194113
62.130299 52.773884 71.221710
53.102369 59.098818 53.376486
56.866214 52.143645 33.014752
51.538865 45.128941 45.743480
61.033721 42.791642 45.130155
53.264517 55.992330 64.979284
49.006971 41.196651 27.813705
42.988297 61.157628 26.269346
56.317622 55.777987 27.777130
50.502680 53.759578 29.017325
54.490238 57.438047 75.918969
44.325882 49.329855 65.142877
56.755803 48.649413 20.277408
36.738845 54.213209 45.433862
60.499747 48.456641 72.406455
51.157105 41.900594 52.621869
58.585866 45.361926 44.393399
49.363074 40.751334 48.865268
60.046895 41.782621 33.415273
56.630047 51.025046 57.455108
63.952245 46.153809 42.399210
50.540903 55.485786 66.288902
54.209728 63.769171 32.194115
47.986513 39.389651 52.100222
60.052848 45.356251 71.810461
53.806178 45.169696 25.989179
45.733506 44.951599 42.509913
35.648282 53.673062 74.973719
53.138592 42.692594 28.218111
51.499480 36.976947 65.078543
48.312249 54.351506 76.706927
39.314711 42.793759 36.356451
49.023102 45.201640 46.342462
62.732536 51.813135 25.359189
62.546455 57.891122 21.054466
36.823275 49.222380 41.324419
50.811447 55.850267 28.543854
41.602725 50.155175 25.844473
50.059781 60.931387 31.239300
47.056871 52.152118 77.035525
37.486020 46.512662 47.807193
44.064756 63.323177 55.402352
53.518621 46.824398 44.956545
53.549080 61.054611 73.548726
53.757698 36.714192 74.029641
52.246901 43.397080 61.872832
57.508822 58.128780 58.834331
59.093125 51.799184 59.400864
46.203384 55.275992 40.812743
45.259768 49.762195 34.806496
57.615430 60.200433 75.668778
56.209761 54.809523 42.231268
55.361320 61.923166 68.207515
35.618559 51.737455 27.357021
61.497349 44.637277 41.383705
53.195590 55.726516 64.156181
52.724445 61.842308 30.770168
42.425399 60.411236 37.234104
59.387127 59.004185 58.721537
60.735148 46.214352 27.964662
49.570231 41.570822 44.747594
57.043292 38.155260 42.199981
46.848891 43.426963 46.814112
45.036922 53.025402 27.631070
43.930435 50.243821 39.332742
56.060161 60.876960 27.070469
56.756949 53.039491 72.397004
39.115492 55.467396 30.355412
51.543391 51.855892 38.580269
51.175956 35.904125 24.795816
50.250724 52.689524 77.826471
37.079132 46.947932 51.878806
53.367436 48.066537 46.238567
45.279045 54.006992 27.121022
46.368646 45.706782 54.591180
36.590562 56.474147 53.424877
54.811313 58.680749 44.781928
50.533893 40.819234 37.180528
40.297313 54.544592 23.882845
57.151909 42.487821 60.727539
52.421446 45.202325 56.879531
36.256880 53.482384 59.131216
50.003778 44.535730 55.790635
40.165119 49.680215 67.932752
52.454702 55.959133 64.081176
47.189154 57.607825 72.964602
61.242759 56.161444 74.120104
43.232037 63.153313 48.629566
47.611665 48.058098 25.344062
48.598019 59.251943 37.243722
57.593705 42.911189 28.459391
58.173350 48.094511 69.268161
49.266095 48.466767 79.459971
56.751738 62.491622 44.208070
49.440470 36.633107 31.995691
35.841835 49.255082 64.943400
38.884991 50.002382 61.245867
52.542749 56.598003 43.882788
41.878984 57.664813 53.376443
41.762694 54.450555 55.491396
43.314418 41.114048 45.409322
63.469185 49.166714 28.566737
42.716325 43.263311 61.152011
57.924992 53.101963 36.753750
55.745430 52.084426 70.129598
47.481582 40.886104 34.254470
61.454336 55.222965 29.240178
45.273756 38.819776 69.505292
58.001631 46.945745 35.998357
44.106562 37.565331 76.064766
53.519254 35.510633 44.643544
50.032341 64.284247 41.048469
58.447297 50.294195 65.920487
51.873744 61.393592 25.729703
42.313903 44.021995 27.091732
49.848595 46.714269 51.684435
47.045130 40.791515 44.010234
54.740483 63.396012 55.156454
43.876588 61.006285 76.535215
50.217877 42.738919 31.046635
57.576620 49.715553 21.903055
41.374690 46.528309 51.284299
37.934548 58.438729 39.238291
41.653349 46.487577 54.892202
48.912544 50.720415 65.186835
48.479031 50.824022 60.921903
44.368957 43.926493 73.760124
63.575482 47.537178 77.287459
56.780799 44.951484 39.406805
59.060673 44.820907 74.813646
42.771802 46.830334 64.447270
35.858264 54.930315 58.253798
59.355977 43.562015 40.866812
38.193688 58.628048 39.435644
62.192128 43.929799 32.471243
59.565394 47.218371 64.864532
64.559310 52.409919 21.480793
62.209538 48.792332 29.507198
52.311813 52.175591 64.887138
46.192324 48.848950 45.809285
54.599675 56.775670 46.810489
55.216894 50.403492 65.057213
63.248097 52.023077 31.100549
53.261560 39.736070 66.528244
47.048083 63.174593 29.039589
54.942310 58.059941 76.518868
41.891195 38.386784 59.090921
39.770028 51.259680 52.374438
46.906579 62.350735 46.146074
47.093619 35.996414 43.265647
43.546070 43.266856 25.599429
56.917960 47.901212 75.849990
56.605108 49.687932 59.450457
52.837026 48.607406 37.848140
48.569054 51.611229 21.244026
42.852191 56.951360 49.809111
41.674858 49.526173 32.324886
60.027226 47.397176 75.779478
47.039316 55.371046 54.945214
42.440538 58.626905 32.683413
48.956800 53.016327 58.227950
54.159885 45.004602 49.864415
39.441467 56.687620 36.002994
52.357201 62.926920 46.350668
52.932497 64.165310 58.778994
47.732227 62.564582 37.401523
43.201264 41.004514 50.197214
43.334539 54.793095 78.337900
49.165794 52.972916 35.593271
48.228499 56.980760 76.042936
37.152669 56.841654 73.423602
59.182136 41.517191 38.588450
44.910644 58.146326 26.245635
38.970706 47.771113 26.192012
39.394378 58.784167 72.327880
44.404600 63.307655 29.126403
48.441393 60.068323 65.867761
58.132760 41.359977 21.389765
56.461153 37.262025 27.113271
63.392448 52.629599 77.726165
39.883142 52.225540 28.353472
40.891446 55.162371 75.243924
39.937892 53.441892 41.252070
61.131145 45.804079 31.998530
50.590297 51.716672 72.055365
46.145472 61.533869 45.331245
53.348936 60.740313 20.407553
56.331804 40.646651 36.969528
48.302755 38.256176 63.742297
59.030855 45.644618 24.385309
61.094263 50.867792 24.958068
50.669603 45.227923 46.961556
59.545519 54.151197 67.891281
58.583218 58.830888 56.287636
57.470391 59.467202 75.880438
48.263674 57.157608 41.098287
51.502809 45.951192 65.608057
52.372597 37.240875 26.033086
38.409307 58.480979 61.940649
57.041730 48.089638 55.064475
61.282152 57.860262 55.169526
49.585297 60.621663 51.774831
52.013865 63.009804 33.165212
49.821448 53.521707 60.740767
61.144895 51.140142 53.452706
46.661450 48.022598 73.203701
41.449273 50.383771 40.350602
60.262596 57.118338 69.195484
41.079392 54.513762 45.325096
47.925763 56.134548 40.899242
57.080620 53.236157 57.379868
51.061872 56.003268 74.446768
50.613538 35.230483 45.982302
54.155280 53.121571 50.794918
43.334824 52.862525 41.895086
39.864404 43.491051 66.948835
45.126954 48.553989 69.043162
38.027636 50.528837 47.635880
44.038292 39.826437 24.613448
51.944148 39.631686 39.328772
43.191344 49.782649 25.016057
50.594747 47.387078 66.975250
42.039063 45.413341 76.607047
53.133837 38.624475 65.713504
46.109412 44.635535 75.527910
48.456792 37.686635 24.505370
59.771114 53.697329 49.569123
57.374616 43.646368 40.198470
45.743612 42.125828 62.379069
48.144061 43.888665 30.121600
47.580806 51.660673 59.969617
48.663827 61.718199 37.602664
48.213941 46.346238 26.515536
39.250849 56.624471 24.596187
46.479991 36.000990 71.137688
51.412325 39.305605 65.122365
47.285672 37.376211 34.787556
45.271912 46.152375 68.970996
60.377655 55.641433 50.468466
57.663464 55.513778 61.891356
53.308008 50.179487 41.428050
49.335087 52.115004 23.620260
60.142603 60.605950 58.426544
55.925716 56.438523 78.994078
53.193862 40.994331 55.683998
45.871649 39.201092 26.602776
50.966187 38.768861 22.592559
45.931790 53.891012 45.823416
59.677186 55.145395 49.017069
50.786563 43.364002 50.390856
40.964882 46.182549 50.282044
42.555628 45.183785 71.086937
43.687183 51.321496 57.903192
57.828351 55.469333 45.847387
36.198555 45.717019 51.179401
49.900295 35.498203 21.067305
56.926089 57.790914 60.037566
55.270566 49.510775 54.090655
50.334922 59.261313 71.061292
57.504701 48.322000 75.510997
60.406904 52.880706 36.432596
45.419540 46.451508 74.546313
61.575603 47.886747 47.244154
62.525455 42.019977 26.639260
57.447996 49.749894 41.786263
58.244950 45.447525 42.276073
63.913619 51.291637 67.534696
63.305410 52.808394 26.845186
56.306972 40.918921 42.626588
44.722065 62.202301 53.574032
39.319515 51.797587 47.411501
55.437451 63.774301 50.519779
45.309314 44.179489 32.971014
40.419404 41.571671 68.457063
55.399692 47.812544 72.184045
45.209108 42.330503 29.831366
45.073788 57.196434 20.836808
46.407394 48.065456 23.514122
56.777665 57.536375 73.925009
58.511580 47.984631 77.426527
48.980313 50.024685 52.541776
49.730570 56.179325 39.335270
40.793535 56.517637 39.235170
42.406670 58.704770 50.109861
55.124974 40.287072 79.337121
44.018548 62.798959 28.099762
61.514518 48.411703 72.972862
44.034420 40.902289 42.986611
63.175466 55.252602 32.409459
54.889589 59.577271 45.481098
36.693368 53.802260 79.733008
41.885473 57.296711 28.633034
54.177617 47.517015 65.067519
52.602345 51.971002 78.154326
60.815587 60.283100 67.487813
42.417586 51.807649 38.991053
61.866185 45.554264 27.464376
57.984603 56.357390 24.776088
59.384318 44.656452 23.790072
51.008387 47.284958 30.577391
63.308077 55.889751 53.051656
47.913340 42.514815 42.536449
52.858973 60.715768 64.997049
49.018078 54.677219 67.013704
46.718937 43.014481 60.018375
49.639090 35.888967 31.511151
43.731442 54.129067 34.282247
38.455507 42.895651 40.975187
51.553558 52.840223 33.515254
48.178868 42.020417 75.487081
45.047215 49.856559 62.742889
40.041011 39.804238 70.742224
36.160877 47.718600 63.712409
54.558037 60.074732 55.856174
53.422880 55.586200 54.425925
54.320344 36.740188 34.326308
51.231214 36.903247 30.602493
45.254194 63.394647 29.372547
55.611431 43.801555 66.489711
41.071959 57.342407 59.628177
53.656538 60.782244 39.335835
57.198419 55.333899 49.131550
53.390045 58.865466 31.711261
45.527091 56.909659 56.088097
40.919400 57.706859 67.110312
51.090528 37.655032 33.315178
54.178943 59.581415 62.530982
40.000903 55.382468 67.920969
58.516459 50.397691 69.393460
63.272084 47.561514 53.069075
51.416325 42.157388 50.463537
58.709454 56.984161 37.925862
60.605219 42.264953 65.367032
46.069945 53.980843 25.250441
42.816661 40.743417 63.911494
59.440375 54.407615 25.177087
45.797560 43.080919 41.169259
57.735713 62.797454 51.829485
50.931677 39.872898 70.001869
50.351844 56.526321 67.763959
44.910208 39.217095 24.219032
57.409699 57.541834 27.623576
49.004000 48.996530 23.403671
51.088659 40.920833 41.514473
36.249310 55.312954 60.553806
58.609216 37.992083 55.793949
58.203222 57.404297 29.314823
42.851978 54.560073 24.207680
42.504277 52.791108 46.413832
57.109641 39.896433 46.576288
59.129789 57.551054 57.130941
46.611220 50.255096 32.154207
57.169082 36.981292 71.572198
55.892783 45.845867 22.352361
54.143508 37.594790 75.685422
50.774228 58.513658 21.717206
61.778915 50.888752 36.961865
46.729650 40.392380 64.895289
41.632166 39.926487 65.112177
43.394114 56.669851 79.589929
59.433987 60.390108 30.512781
54.265207 40.673147 21.340496
56.837318 56.401284 64.958607
62.328388 45.826097 69.675274
47.744450 43.757283 25.651285
39.312775 42.656429 47.112016
55.614449 53.320297 77.375997
48.107123 61.328223 65.705273
55.739450 40.383281 78.265943
50.934862 41.072046 47.247325
50.250593 58.735903 74.243432
47.080365 41.130105 67.813927
45.514430 42.322825 79.632107
40.072443 43.319797 65.337816
42.752664 42.034614 42.961666
38.996004 40.886712 24.421614
37.909175 49.292163 67.724085
40.580429 42.317625 49.868814
51.092855 61.461379 37.551877
60.132746 53.457100 23.948565
35.546946 48.973748 70.140896
60.568450 57.929737 64.595142
40.031488 57.519409 20.018440
50.308743 45.604589 49.759646
52.886064 57.604725 76.737508
39.485814 42.651214 41.866922
48.359673 36.304453 24.566475
62.286145 48.183202 20.410661
47.445000 64.747808 76.466165
50.186857 39.113724 64.788911
37.956035 54.459882 29.274218
60.716882 42.038037 33.252736
54.212980 48.876859 57.575292
35.879630 53.639834 37.425600
45.528930 59.618415 39.846742
62.071782 46.514682 65.726099
62.608524 55.832979 37.939316
46.994072 37.333263 65.178229
43.925824 43.828657 76.503556
44.189846 37.785769 58.506824
42.175027 57.172330 78.737610
59.726701 50.633247 41.721232
38.336678 56.737014 72.828878
37.870174 51.579976 54.535307
50.295881 36.140415 77.810060
47.947371 38.594477 20.671985
45.693439 55.177620 46.207991
46.253845 54.633655 37.826451
41.659173 60.773070 51.073576
48.831398 61.090156 61.286700
47.955002 40.527700 72.705754
61.469073 48.781528 72.070049
60.862524 52.419344 54.813031
41.249515 44.499279 73.089551
60.315884 45.357214 56.757320
49.131573 62.416125 36.485435
52.215667 54.174493 24.942717
49.917778 61.911910 29.103594
42.528132 52.223094 74.753737
44.581617 53.899021 61.645717
54.453376 55.019799 65.288242
48.025777 62.104190 50.596920
46.086400 63.986492 56.924580
50.151876 60.547008 70.154342
55.133815 63.962561 37.287877
56.491012 37.598740 28.633756
52.097945 52.979418 43.730726
50.368364 40.928219 42.687400
55.454008 51.501624 73.484425
44.579902 51.069392 36.549651
43.502359 48.715728 55.480856
36.696691 45.732256 50.956833
39.506689 57.112015 49.077977
44.112016 38.407282 36.897482
44.478608 63.460216 26.265963
49.389065 49.706291 55.141575
55.855570 56.062722 51.132764
45.018940 54.918911 57.334813
50.231005 61.737504 51.662533
58.317048 41.785774 60.705245
52.882866 50.686490 37.655826
53.130280 62.681536 71.749266
44.739282 62.994282 77.373346
58.206990 50.069724 37.773897
53.169505 50.541331 24.033512
45.783350 52.624070 65.819781
44.795869 62.972818 59.795319
41.398201 38.623787 65.994686
36.533138 45.700275 40.139467
61.252223 47.278005 33.219026
54.752300 61.150177 21.982567
44.872378 51.635935 54.340387
57.139780 58.920584 34.602252
59.624430 39.309287 65.149473
59.020690 46.937621 35.984504
64.740817 52.042682 21.350416
44.173021 39.796570 73.034350
47.642031 62.767956 69.668426
46.318071 41.921063 68.782161
51.972325 49.533068 34.071102
57.128858 52.707972 56.401679
38.071613 42.390623 25.226977
40.299302 51.314277 25.022791
44.852610 45.938465 37.756773
64.276152 50.367457 25.938959
43.543146 51.211767 21.600619
49.851986 48.766336 64.617304
43.942293 51.586098 40.197399
52.832945 39.764287 71.009941
57.217686 51.184013 66.164296
56.791901 47.197551 26.360679
57.876187 55.672542 41.216743
52.831753 44.779053 37.443608
59.969858 57.467489 42.559829
52.528594 63.459359 21.974068
58.266143 50.259295 37.035258
59.402791 60.884426 62.981155
51.500859 43.314088 27.953715
59.151895 47.249240 70.796407
49.677874 45.820231 63.347670
45.684707 43.400174 79.860362
49.558918 48.826718 73.540189
45.577212 55.342840 67.717768
53.953074 61.648236 25.427323
51.658632 57.590596 51.529024
56.060859 43.323221 76.094582
48.440589 56.433956 77.992043
42.223170 54.070963 23.833382
45.062909 57.321422 24.909287
41.124032 52.504759 31.399773
51.271805 50.234507 51.874114
58.396246 51.291439 74.009770
58.359446 58.979795 38.245614
53.564604 46.823492 24.721357
54.960640 47.178233 73.499952
61.223423 51.446753 51.634226
40.139315 52.214595 68.500456
52.429018 43.241462 77.618039
47.798588 43.520639 35.347023
45.956138 59.802144 62.419940
39.619775 55.525439 37.249982
35.204396 51.998556 52.373192
57.059300 62.871050 77.928042
48.478620 55.389843 33.148652
44.913672 41.251419 77.319324
38.709109 52.133525 75.781952
60.412328 51.725692 58.535964
47.458764 35.428835 61.780171
56.574410 43.085439 76.741055
57.257971 50.202872 73.796559
59.488410 42.689898 30.697243
48.784762 35.636857 59.783578
46.215794 63.773256 70.009319
53.676077 42.560350 61.691928
61.999818 43.542375 72.048731
52.878001 60.499946 28.850954
43.663312 41.967413 48.616820
47.432673 50.823111 78.739497
45.618295 56.030406 28.891027
56.959295 59.680809 67.330753
51.124386 40.428318 53.319550
60.161672 48.164569 46.918304
57.918498 38.925312 31.755626
52.297551 55.642317 23.382843
52.416853 46.845443 43.437826
38.266366 49.927699 29.056451
47.000116 42.796523 67.661383
59.463523 42.519340 60.592121
39.341073 46.247200 46.129320
48.622771 51.680511 45.910643
37.081041 55.499749 72.026884
48.538912 52.876712 67.572479
50.043793 50.735009 48.853638
52.664499 52.389364 50.654414
54.952607 41.003068 70.389144
46.040710 48.914645 45.682447
38.941619 52.127653 38.306585
40.912164 42.717295 33.769682
52.846926 56.701891 31.360887
63.898023 49.178134 66.468097
54.542861 37.744529 55.200408
50.436056 45.675244 45.003073
40.964229 41.804024 31.220506
54.942500 55.577735 20.032970
42.357797 48.383303 37.747225
56.762194 53.450446 57.112833
47.346757 53.560331 51.263287
58.101693 50.915877 22.271409
43.462826 40.046560 45.452978
53.722226 59.052843 60.173868
48.287419 59.203313 53.645092
57.956166 38.912793 27.236765
43.386250 40.272221 20.313190
53.646363 57.676184 49.230965
42.350927 41.389185 64.991897
39.785321 51.258699 67.670282
61.178803 56.493677 55.941597
55.557753 48.247601 24.556348
60.232886 45.865786 23.493656
55.295140 56.319651 52.412727
58.176575 47.247280 46.040706
37.293509 46.463606 79.874873
61.369800 40.844252 31.502122
54.806165 45.897859 26.364742
57.898592 47.378742 45.889208
39.219371 46.828303 74.497197
56.399802 62.441284 46.226717
36.425540 44.328658 20.737890
44.052478 38.615562 73.302967
44.390725 54.050507 78.433662
62.839273 57.383366 58.884789
53.098160 46.013979 45.097657
54.972821 63.334687 74.225351
59.078046 61.378439 53.443702
42.003482 45.033821 51.531352
39.792553 47.369162 62.297948
46.126554 58.799482 47.774329
43.838161 40.750946 43.422517
63.264245 48.772124 69.283610
46.953848 51.013840 41.580168
48.719079 53.782671 33.836817
36.766354 44.176452 63.010263
56.616907 56.452437 79.411138
39.320742 47.688846 62.963501
51.578937 61.862557 40.506900
42.863168 38.362874 30.321670
63.488537 50.564447 60.883703
55.324771 38.693632 21.329189
53.217258 54.722804 41.043063
56.202576 37.292642 48.331015
54.721095 53.345348 45.033167
44.709467 60.763349 39.135383
53.506893 35.770365 62.592207
55.524234 58.060201 23.680667
51.012983 50.278629 35.961857
58.173385 61.413777 55.220856
52.207892 52.552094 22.922118
60.943065 52.868751 54.142628
50.976502 52.831716 70.881596
45.698877 54.240415 62.254388
50.937947 57.409656 34.628977
44.417745 40.443962 47.393061
45.262408 55.864724 49.368327
52.065513 60.354094 29.829306
58.240060 48.987281 21.313672
46.613666 59.380785 57.979610
40.106312 51.576188 60.996234
38.990849 58.077904 52.697165
35.103695 49.321266 36.509664
44.109099 48.418414 48.490783
50.964085 52.271788 72.682508
50.033640 44.767310 53.943199
40.363078 55.950700 67.775044
52.994727 41.631529 61.108901
46.122662 42.572958 33.596813
53.897946 49.002329 27.626944
48.113883 48.025757 74.478261
56.003087 45.428688 79.460585
40.114877 46.007579 73.613157
50.841283 52.782290 57.343025
42.813131 50.951964 58.047355
47.718458 46.131571 68.455318
57.559254 50.527996 40.209782
37.642670 57.816077 67.325298
41.956913 59.120177 35.805713
41.473026 55.021872 51.040372
58.364333 56.545943 54.569562
62.117579 41.392060 21.341573
61.414140 57.176860 26.540633
51.568256 36.490631 49.759085
44.119178 53.763806 25.991154
40.208115 51.191210 71.512789
48.391520 47.363068 64.979413
51.479606 39.316704 65.237742
35.237331 47.481695 35.777870
57.728454 53.853750 74.904750
45.380927 41.736411 73.775678
54.048778 53.111199 65.625872
38.553758 47.029118 75.285179
40.548224 49.418520 70.343403
48.638711 49.781103 73.074086
35.868633 47.991073 63.070260
39.880777 42.645525 61.489218
53.579574 41.897369 51.391822
53.068361 36.909387 41.752946
60.073525 55.803855 50.817831
60.056363 60.922205 39.115361
58.577568 48.450797 45.066299
40.292576 50.697216 39.713428
46.443326 36.895207 63.046646
59.253266 56.424823 64.370161
48.618558 50.278817 59.799087
50.438571 50.779209 34.787815
63.693394 48.867185 45.275894
60.660646 47.491909 36.604858
59.917678 55.619418 61.664165
61.244117 50.343871 31.402928
53.614583 53.655638 53.048805
56.770799 54.596380 31.374243
61.806244 44.649635 35.264483
53.628228 46.057584 53.540744
42.310761 61.203880 46.377753
48.337106 46.684340 42.077203
54.794532 42.746062 52.341214
59.756397 46.794256 30.738190
42.236066 59.924193 63.979009
51.570812 40.155714 66.484616
35.067699 50.115138 73.660288
39.373629 54.474640 61.431721
39.766792 52.807305 50.094403
63.281079 52.094309 33.668963
35.808546 50.132872 61.228927
47.179659 37.658838 68.837888
41.971768 50.768656 56.701490
45.217412 55.748674 32.035791
52.993572 58.834216 66.688885
50.498804 60.023049 48.440821
58.627338 55.687871 53.020924
49.959122 39.424398 20.920254
41.733755 48.857230 53.874470
45.429669 61.578192 27.667479
52.857829 54.558629 78.297823
57.276091 43.284252 70.758667
54.050562 51.754177 54.274141
40.664834 52.815940 78.109380
49.884508 54.440889 31.545870
51.633893 39.945333 69.137827
52.612478 62.834412 40.302413
58.621377 48.407439 39.732854
52.988457 44.690191 76.451991
43.964011 44.685790 65.261354
52.444556 51.481720 64.842488
43.397580 39.201694 27.266099
57.992123 40.735134 60.631510
37.108383 53.433154 26.688264
59.007201 43.295682 68.138975
57.669751 42.982484 61.469501
63.397697 46.507692 78.157683
35.085785 49.216282 24.269057
43.185478 44.552267 20.122405
56.887773 41.774598 31.682780
52.769999 55.251050 28.030014
36.555971 47.640003 32.168844
56.834538 39.733489 30.274773
45.875913 49.709159 47.385828
35.768812 49.227860 37.523380
57.604067 55.627720 55.014927
61.166610 54.648697 45.346909
37.923731 58.231374 30.493318
49.198379 54.809845 56.770570
52.534426 60.429620 37.030572
52.542059 51.451890 60.353556
62.163298 43.587740 47.740426
61.284735 48.346331 42.819492
48.506725 44.188851 25.237349
47.053512 62.621005 61.780502
40.464760 52.635228 77.926017
62.130213 52.191160 54.656940
38.288686 49.399856 41.919535
39.033783 48.358355 21.184179
54.834970 62.536076 63.525102
60.083131 50.855451 65.402323
48.931464 60.382089 53.203330
41.893585 53.199079 75.019574
52.524471 57.885455 29.829935
57.400698 61.218840 24.023086
53.474545 58.754472 43.626661
41.773975 42.530503 23.492015
41.402468 44.613547 24.606284
48.012071 44.158645 68.359964
54.192366 51.075594 44.837885
58.809445 39.495019 58.392747
52.111261 56.380310 52.329185
50.002095 53.252453 73.722931
46.653926 53.515822 76.076394
52.004390 61.781401 20.629136
61.415982 45.840246 63.060987
47.645734 43.009204 29.261399
42.307463 51.867214 31.466229
43.517123 56.246683 64.238921
46.211862 57.859367 70.602824
61.227304 45.419743 60.183117
50.561369 46.247816 54.880785
46.955205 39.222068 35.026266
55.595242 39.220416 24.064614
41.250232 40.834673 33.402916
49.467698 50.862197 63.058314
49.928842 38.880908 22.380516
56.715261 46.087443 52.001524
55.474753 51.324253 24.640861
58.199594 53.219478 59.946949
53.886722 37.679375 65.580901
44.875794 53.540808 29.067563
51.629519 62.635173 67.774556
56.317136 41.766913 30.367754
62.359809 52.813579 53.976037
46.831311 47.734210 65.472891
49.969458 35.871651 42.500015
56.143303 47.642150 47.820091
52.160604 58.561224 78.858823
56.150365 38.466003 64.837548
49.754316 50.533710 21.601308
52.369630 38.602130 26.625043
55.647793 39.525383 55.373166
59.970779 52.735820 61.254192
45.056904 58.687273 72.979763
51.588681 50.104202 44.117308
64.148094 51.858096 47.546631
47.614348 58.151942 32.938248
42.649128 58.540106 54.978251
48.905851 63.144062 40.236922
38.294775 55.578053 51.109717
45.809803 37.743119 78.462062
59.078990 59.330789 79.389161
46.147919 41.870395 37.561131
51.992317 35.321083 78.477693
39.850423 56.451897 30.782844
57.807914 62.325967 72.583209
59.446280 54.331670 21.682145
42.125041 41.386328 35.126086
43.893905 41.525283 24.542817
37.943820 54.987980 73.767251
35.607503 49.310300 65.243926
38.738898 51.407595 22.425421
43.858764 61.725879 35.749102
43.267400 52.213225 56.459027
48.151168 38.507459 51.848289
55.662980 36.559669 71.558692
53.104666 63.192431 73.361934
48.329351 43.962675 70.050581
61.268469 41.966130 33.358458
52.101371 37.102873 76.151012
60.602729 53.179844 72.467359
42.169069 59.283235 45.556424
47.146166 41.225890 79.535782
43.204446 50.604793 47.586235
57.064683 39.036648 75.048988
59.104343 39.571376 26.644809
35.961661 45.828704 32.739429
55.022171 42.231918 44.640111
39.270757 55.092285 47.801670
54.027128 55.999301 24.115429
47.522074 40.820629 38.038013
55.615295 48.277518 27.623994
59.854529 57.023316 48.337300
54.177155 57.864454 21.752935
49.936413 44.034282 32.976967
48.337300 53.113809 24.281486
49.538275 42.399408 57.238741
45.178095 48.567687 54.005809
38.398357 59.022871 59.357492
41.324060 40.906670 75.047599
43.696544 45.740610 68.301423
58.227556 45.302291 73.147203
55.339043 44.112607 32.298732
63.050210 43.090398 52.388500
62.155042 52.446050 35.324022
55.205036 48.253409 42.648541
58.915232 43.049300 78.629486
48.419269 56.709926 53.254817
50.183914 48.348796 65.424971
58.142995 44.214565 76.198820
59.651850 53.710045 36.360411
44.890822 50.647217 46.189604
42.786818 39.760452 42.796566
50.021167 60.138509 46.910448
56.316635 53.242497 45.254096
37.787913 41.925258 65.693442
53.578515 54.571584 75.985395
50.614055 50.614328 28.309565
42.129126 40.279662 70.209394
51.770008 37.329934 36.271213
48.110816 63.122742 51.220454
48.733471 49.148486 38.735129
57.962704 37.330232 23.605890
43.941636 53.016340 43.839774
40.286074 47.408875 21.826482
48.321751 50.686192 20.385361
43.484825 40.825943 58.663804
52.714776 55.529012 41.930892
64.730356 47.228095 25.849404
39.672570 48.780092 35.322281
39.554956 46.261453 26.454505
58.078600 61.828212 59.212004
62.884689 46.556057 74.019570
37.551165 46.983331 55.466048
55.390739 43.513735 66.908583
47.188365 52.446579 51.329039
51.482131 64.208595 21.060173
43.912373 39.713325 48.135774
49.028279 46.322055 79.820761
46.117632 47.888344 47.131728
57.514626 57.790296 71.433235
52.937965 63.346040 55.764647
52.838373 37.039363 43.655880
57.017269 56.292817 43.735802
48.051885 62.598531 53.947658
48.961942 50.926545 65.706845
35.366241 51.136417 75.739414
59.561036 47.699202 61.834470
50.736918 64.788208 31.392300
53.692120 60.262452 41.972897
49.547612 58.008626 78.239764
51.804005 36.366674 35.094220
49.047320 54.893903 57.694799
55.454727 63.269838 42.346653
45.329254 36.576005 32.030650
46.317405 64.057221 53.675141
60.870401 56.020905 40.098336
36.401760 46.176277 56.789590
60.457264 43.687147 70.091388
61.794034 41.791444 53.538693
54.729588 57.414601 28.816679
36.917077 55.604723 66.953091
57.894550 61.755746 51.331664
38.344802 44.599783 67.789538
41.254586 45.134279 39.750766
50.764149 39.553825 74.587941
43.523525 60.182864 23.290249
46.929417 41.861741 26.233321
56.869080 38.490358 41.455590
44.193310 58.921350 66.189842
45.497875 49.127403 42.445785
48.543759 48.873400 65.485230
45.635968 57.378068 59.396086
58.177627 45.488836 21.354113
50.813836 54.801523 71.585259
44.338378 42.237104 21.876970
51.993233 35.350842 75.899565
53.511097 62.031674 28.988164
44.793594 38.543550 57.232285
53.292218 63.414117 61.093158
55.492028 60.437019 43.273642
37.929959 55.694802 50.975178
59.026060 46.447825 34.113660
49.583416 61.679178 66.897816
57.464487 56.645803 48.044079
57.144150 58.920221 65.244772
39.284261 55.200953 40.141154
38.033857 57.628552 67.326461
60.257431 50.073333 24.708307
45.877071 48.073156 28.570455
46.051653 56.228767 50.829386
53.528770 55.203607 76.142145
59.356618 51.940302 34.395890
52.074959 45.118623 77.145766
38.814320 59.172990 54.645758
39.092047 48.763580 27.691776
48.955244 45.022488 73.265473
56.319772 50.828460 64.594533
62.748736 52.663331 21.284123
44.093856 40.893759 28.500451
37.828555 58.729280 58.588110
55.733648 62.630363 42.543643
47.206007 56.522623 28.712999
42.606479 59.380470 56.541217
61.231810 44.442045 47.724073
60.343927 53.319178 53.994191
59.219480 45.559661 34.305445
46.041727 38.949272 53.481216
51.217820 37.170674 49.173230
59.932745 60.358529 38.453647
53.441261 42.229671 52.344337
48.707041 46.722229 46.288920
62.750066 43.701005 50.471404
53.509606 61.833037 79.656809
39.087475 43.551456 52.695737
47.615725 54.092253 50.276881
55.079842 59.420622 46.497000
37.639520 54.725073 42.275486
48.342549 64.036960 46.986707
59.888660 40.027065 61.218775
46.466439 51.362699 52.978197
51.048827 56.314705 61.476349
46.760039 60.160305 33.910317
61.329633 40.664697 59.914985
58.880881 61.687049 21.735819
55.726115 48.585380 73.300391
51.331581 45.148041 37.994877
61.030107 46.012000 34.448587
57.869884 44.215769 47.361095
56.764830 57.947169 24.260667
53.029710 41.157288 39.386396
40.140605 40.142424 64.272274
45.686999 51.099865 33.858158
51.422412 53.014555 40.151496
56.028740 61.674217 32.430034
63.294029 56.007182 44.564648
51.874866 56.220986 30.352714
48.608498 43.782346 49.105319
59.661101 43.902390 48.578632
51.912200 50.303254 35.817689
52.058181 57.853281 38.745648
35.302659 49.055837 26.597946
36.376716 52.497700 73.654319
50.579120 41.855160 60.817718
59.104641 58.139577 33.843108
38.271347 48.990876 73.029239
44.639540 44.281448 29.043204
59.608220 38.511654 43.645792
39.784120 44.330012 59.892522
53.252966 56.990099 68.791828
43.009272 39.578404 55.695092
51.997279 43.837137 67.170903
63.349039 46.322814 29.018244
60.976895 50.273821 57.988950
46.983528 35.507636 32.286622
55.209448 40.699695 78.302579
54.532727 43.510486 59.105063
51.159611 53.246845 58.343620
49.638249 63.242579 37.574557
62.431245 51.548587 64.068029
57.935876 55.217546 66.511442
37.141950 53.334186 29.615969
40.877419 54.145115 23.133170
54.528187 49.764161 30.281417
47.540319 39.538452 78.895847
43.829167 41.712610 46.194952
35.436086 50.936767 79.969233
43.827780 46.809142 59.203641
64.615249 52.519868 31.864240
48.509888 47.102351 27.819965
46.945148 49.319896 40.149525
52.759629 36.447317 65.390398
60.596784 56.310204 63.381722
54.766985 41.339806 24.433773
36.670649 55.326132 43.950544
55.464718 47.072260 35.952904
44.795356 37.110979 26.524298
40.407765 58.905806 44.902831
55.439862 60.536276 62.223662
57.830644 40.844090 71.414845
44.049874 43.722959 72.649366
60.863831 48.925406 30.205084
45.791480 41.952707 29.060211
51.457726 62.846887 63.248758
60.362188 39.311416 42.495195
63.959795 44.644418 71.740559
37.446330 52.464698 73.109060
55.981968 53.513047 50.572823
46.064004 47.994532 79.426442
37.921120 54.363920 71.428360
58.371331 51.124229 48.785234
36.165453 51.528648 52.591476
38.248988 52.435583 36.763492
47.766082 60.288422 59.597423
58.107773 56.748209 59.695547
55.323799 52.944338 50.275710
36.175433 44.959076 31.049991
38.834497 40.891007 45.377131
37.789130 56.284406 47.874907
45.919791 40.692397 70.577443
51.163070 50.949434 59.656489
36.635032 51.059180 36.779565
47.623522 46.196295 65.503583
50.108444 60.101608 51.880681
57.043852 54.761228 36.527423
46.861045 50.738930 68.673728
61.930691 55.561687 44.011239
58.985411 44.764704 67.008679
49.197908 38.347099 57.506798
63.136296 49.942028 25.707077
49.534117 46.559844 39.823031
52.331823 61.022942 57.207086
63.462934 56.398300 35.534925
45.338839 44.586168 27.051197
54.963885 45.041243 62.417507
47.854239 41.226775 26.332519
50.466077 39.530426 59.254624
48.852474 37.985665 23.727975
52.706900 51.970250 58.707630
44.910744 53.474419 76.675444
55.377251 60.006023 63.848522
53.672724 60.994745 43.448655
38.125567 52.239485 46.519162
51.161931 63.432795 44.142697
52.296443 44.003275 27.664320
48.894092 53.013593 71.058146
43.641590 47.005576 78.484186
58.883307 44.250753 54.836236
44.836811 62.820139 71.481888
37.167700 52.060217 50.218288
50.558134 58.768624 24.575997
47.049814 50.485086 59.099986
47.126604 42.195247 63.764217
43.511462 53.062897 41.052063
62.117569 51.294426 21.405596
61.847124 46.532099 27.709797
41.479263 59.894310 46.133457
46.577425 54.016698 34.187896
58.165108 51.875075 42.299473
61.318065 59.495307 24.233292
48.445232 40.467107 36.266603
46.864016 40.995046 26.232277
37.681010 55.706377 49.313290
37.485388 56.297437 76.292023
46.918483 41.293214 78.612519
40.237121 47.362567 49.349980
50.020857 38.093579 55.162046
53.243827 38.925472 23.294026
40.842877 61.620195 77.734042
41.103276 44.453592 67.335782
57.818373 54.409179 30.593599
39.127596 56.921313 78.128528
41.347765 52.063926 73.284332
41.732618 59.742210 36.830965
38.971725 40.352346 75.502396
62.087256 52.194871 74.244403
53.421773 43.917872 74.139327
48.974400 40.064750 74.742589
45.274193 58.133122 35.594479
54.255916 57.829336 52.844165
36.792427 43.978306 46.716981
63.436859 45.349245 75.367800
49.136745 62.355745 75.345876
59.152301 57.931847 60.124517
41.660019 55.752030 76.687803
49.158470 53.472031 72.407298
59.791678 51.475170 31.720019
47.511893 50.370807 27.237827
43.963423 61.305570 41.055931
40.094574 49.017686 70.044328
46.849926 58.392876 51.361751
42.297534 61.390957 27.594426
53.736530 62.029502 61.686547
50.694926 39.714858 40.376470
56.450140 54.652668 26.265964
61.893984 53.057570 47.698107
40.875629 60.168659 26.972141
41.360718 55.279460 63.690255
44.294732 39.622006 28.350051
50.880871 58.705138 76.808386
38.447527 45.576097 76.950986
49.678433 57.228842 63.856915
41.243327 47.156743 58.705976
51.172396 60.301534 69.824028
55.736282 62.773451 56.021327
53.218147 48.454602 44.830572
51.768690 59.252299 51.349697
41.168275 47.653103 79.109220
45.795874 41.862511 75.435585
44.806834 54.717099 36.321266
62.987379 49.343939 47.434070
54.022926 62.377267 44.066033
47.272641 40.514255 67.760296
38.788816 59.365179 35.414006
45.974472 45.130075 57.138884
42.820519 39.754641 62.783780
51.379602 60.563021 57.751427
62.648074 45.963975 41.763505
59.402489 53.193561 30.631267
38.907725 52.883696 53.444778
54.337675 61.449480 72.733134
40.129091 47.881192 23.076261
50.428558 44.608989 76.111543
39.457539 54.659808 79.774967
50.011936 50.604018 25.466392
50.845642 35.839581 56.736889
51.605942 39.914151 60.246547
45.326627 42.442474 43.404796
58.011074 49.229181 60.226932
47.588989 41.964236 42.501405
54.293426 59.733392 38.728720
48.813925 36.087228 28.480903
47.334930 39.197028 79.156629
63.179535 56.429009 43.525489
40.485256 61.557254 39.192624
45.417513 58.849517 56.873363
52.638144 39.219196 67.776170
53.309577 36.366381 30.493171
44.218409 55.350202 33.045887
53.114036 43.032674 72.719548
58.743346 48.595013 36.928858
44.374715 60.510488 66.611946
52.595002 38.527214 63.653386
49.446925 53.200241 76.943448
51.491850 52.303649 34.365397
50.915893 53.657598 73.814372
58.975542 52.618772 26.579346
42.922983 50.457112 71.748114
58.590938 51.877960 43.544180
45.596039 56.757273 43.476107
42.726748 61.969883 70.569773
63.002867 48.972473 46.087122
42.480299 42.476191 77.655329
51.589122 43.411187 59.625941
50.825662 47.787650 48.928705
61.413959 52.381054 57.773413
38.805459 41.725917 78.595456
55.949365 44.967249 34.364995
51.954998 42.134709 64.740913
38.832871 46.782927 32.109044
50.727694 64.950203 57.045926
46.747738 51.496208 70.784887
48.056102 48.232157 56.629210
