85.480360 56.610759 88.958478
25.417860 65.429550 93.518890
93.437436 81.582955 87.700952
43.894167 71.635187 99.827524
94.831205 8.293356 82.487865
91.914111 78.650167 87.503876
19.287046 15.070522 93.192994
39.745112 87.519135 95.907488
72.739358 13.350042 91.372423
20.401624 11.703335 93.899349
38.184910 92.398080 88.943549
68.002780 27.146001 90.738891
19.280565 24.377512 85.173466
70.466159 17.825085 88.009328
98.454668 31.339455 96.445120
68.275447 83.075846 83.202547
47.837633 51.414721 89.747811
66.798434 48.391864 81.595736
4.392798 43.888921 89.472535
31.278082 55.116197 82.938495
25.800387 46.443248 82.552564
82.639618 97.034371 98.364358
23.822233 86.309226 90.286451
39.624439 90.399769 86.349285
16.817367 51.426899 90.979983
84.692464 53.949303 91.143212
90.788496 34.824403 87.392957
78.961676 67.542236 81.089377
85.002898 78.152769 92.674139
97.780532 19.090630 86.422956
92.961063 0.222343 91.367809
75.617140 47.325323 89.988469
24.390740 25.470595 98.088443
84.280009 5.795674 98.587280
41.687646 32.488522 92.367575
42.436170 84.833908 84.938148
59.163730 99.175876 84.416078
0.095146 60.891535 90.134158
19.024269 38.276913 91.636650
38.602355 17.759749 82.852217
72.503309 97.732115 93.948378
18.057489 38.113488 97.902487
21.745901 50.335849 87.294050
30.579127 71.950690 96.818115
28.007844 58.830052 98.855850
25.497336 3.168234 96.359717
13.746495 2.915902 80.347421
2.762788 37.464369 89.509401
47.846159 74.548687 96.851190
82.237586 51.733124 97.888852
42.807635 2.898799 94.479895
16.672319 75.530164 83.030451
5.846100 86.135322 82.074448
17.745913 14.567391 84.426788
35.341267 40.577477 86.963673
28.018611 14.185761 82.280429
48.977288 15.808035 97.371021
25.604324 42.171039 84.584760
20.717315 84.084486 86.236170
87.403136 73.825965 90.691676
24.083001 73.395895 98.557032
65.536625 41.673669 98.337012
62.583769 88.658456 91.598776
14.404375 66.238295 86.916005
46.368590 21.299755 82.788629
12.833097 75.163937 97.112627
46.774167 37.792300 81.302239
68.805575 64.672428 95.599491
45.476856 45.633371 93.070395
32.719286 61.427304 89.631345
22.130650 63.852137 98.282830
20.142702 17.078874 87.604782
78.688097 97.599836 95.401301
79.823645 97.298657 84.079445
11.443316 43.911639 96.187735
82.841194 33.441391 83.576633
47.093968 13.305040 93.611933
87.429551 42.692805 86.271782
74.245638 9.211801 81.360394
43.521651 9.089781 89.504630
11.872387 76.418493 93.932453
94.719533 58.664629 89.569910
84.913607 91.244479 81.441400
15.451554 72.058805 92.492696
83.610869 90.703697 93.707086
76.484602 38.621254 89.301035
38.061994 1.868087 83.070413
36.996865 6.755364 87.221547
19.358239 77.790672 85.201147
87.214763 53.483288 95.095113
5.318540 28.244764 94.904814
78.573702 38.385447 88.361599
57.485686 71.457684 97.688857
63.889153 27.309210 82.275740
2.024247 33.769274 83.211665
28.406825 53.895718 96.311317
92.050460 13.267342 83.455556
54.522004 6.782639 88.278691
77.512499 37.024462 85.496399
69.767291 77.107536 96.907764
88.889387 71.014875 87.690059
16.221610 81.364736 95.296726
81.550775 61.522793 92.650010
9.448633 1.686460 96.532022
47.014767 80.731110 96.679726
29.927508 63.820770 84.986260
51.802822 54.575693 82.153814
51.745051 85.604921 99.131638
87.701037 46.645038 85.330696
43.568050 49.135320 94.897074
12.845137 29.927551 85.896168
71.822022 2.809171 94.423157
49.918202 45.061316 92.242739
39.365909 10.726252 96.877698
72.598174 4.676591 98.850426
83.812914 61.135020 87.029983
96.691245 89.433346 89.328736
76.639394 90.668579 81.387557
52.149217 70.989430 99.986720
64.823843 31.688555 95.638116
45.183638 41.863094 93.621577
81.711587 41.448126 81.486221
55.354362 61.210168 92.788328
52.566803 2.324781 80.203683
66.867779 93.844610 84.918024
5.649441 98.883639 93.955990
45.914379 41.262693 85.179488
17.746394 81.411470 92.832385
16.823882 99.959600 99.053424
81.945556 37.851192 84.368109
69.703073 94.126671 85.597888
15.603368 56.777129 99.812485
59.547451 55.754648 82.401884
12.849173 34.095289 95.655423
60.845346 16.745647 90.433109
82.352374 40.530732 83.909602
26.644210 34.789146 96.051346
94.173584 72.856643 89.175797
97.497090 36.614218 80.187282
92.371553 69.677141 87.833462
65.878391 51.385746 81.652022
95.817195 22.132149 87.167990
76.142388 45.217796 81.264563
12.670168 58.771086 93.290556
99.230897 51.735472 87.058821
50.065726 4.786839 93.466144
43.871296 49.668077 81.892748
57.667036 55.157603 86.204660
21.646366 26.729052 82.801369
16.743965 29.892262 92.043423
34.426502 89.479738 80.370248
31.419718 60.703551 87.730908
53.345719 10.395638 82.588331
62.583673 83.258222 91.723828
88.263417 70.923607 92.895267
75.043678 73.870435 86.039720
67.923032 42.630647 90.474273
27.036085 9.410083 97.797389
65.195883 65.919754 81.752664
42.144145 38.623556 94.914501
29.335214 83.691337 83.369666
34.209397 14.110607 84.666731
52.587083 83.108372 97.618559
80.863211 70.669418 86.284372
28.721960 43.243957 86.132353
95.926272 90.851593 81.607723
63.953825 12.484901 93.286474
1.309469 22.465208 95.781785
69.526422 39.664184 82.015250
22.840419 80.164709 99.798432
48.601389 21.077079 84.771802
32.700227 52.779418 83.559546
84.978181 58.821297 93.097940
38.447181 23.881665 96.502536
15.926330 71.324344 89.832110
88.767714 20.461707 82.069447
42.874644 77.041671 89.781858
5.768000 72.352651 84.656601
81.019278 62.662649 96.881124
52.708358 61.393985 84.538324
10.033903 19.863620 98.089008
44.009295 7.815933 95.048256
51.408014 84.068564 85.540480
50.151897 23.380987 92.203519
68.213881 70.499233 87.251402
66.112951 51.068681 82.680117
59.986779 12.070740 97.674811
48.169950 88.358750 93.889084
89.937027 31.908836 80.231711
75.225225 43.824324 95.378399
93.817368 68.011830 99.520781
94.351983 60.483454 92.772239
68.184501 33.545183 94.884730
63.625186 99.578161 85.023081
9.031309 11.504067 88.875548
67.558400 67.876111 81.478175
38.790047 43.940554 81.801280
34.816702 25.659920 85.026477
16.037884 72.297126 96.984630
25.856380 92.065362 99.794717
59.104805 15.099067 94.455917
35.800316 2.025498 95.684315
61.385071 47.193836 83.321880
93.154700 74.859410 80.759625
90.570421 78.081568 89.798132
84.265465 43.690954 97.840935
33.648910 86.206299 81.051254
42.026375 5.512993 87.270727
52.465671 4.836509 80.373542
19.164170 56.757159 93.849336
34.144508 25.051048 96.015951
53.802680 32.889724 85.693242
20.216465 29.009032 94.740977
66.800535 57.848126 94.678038
12.963225 94.728696 81.816445
14.526976 94.646380 84.322412
50.084783 92.882649 82.098254
85.776267 72.430783 89.695088
22.420000 10.635543 99.392500
61.718046 38.052739 85.844003
9.196718 4.479535 93.465693
52.809702 53.969780 86.483961
59.294083 17.381763 81.145011
80.569699 48.521164 90.079455
80.861665 69.244006 89.865851
63.460467 7.739435 95.564775
12.593650 90.616994 98.117039
40.148699 41.461088 98.689172
32.364599 36.930484 88.822884
60.734212 77.658783 91.498943
22.555750 39.174889 86.810021
79.795070 37.251767 85.155380
3.571772 92.162164 94.015067
24.388157 95.747093 96.116095
51.407762 7.590817 89.170015
45.833451 7.809094 92.864245
92.206160 25.834057 94.849812
35.390486 29.613384 94.673044
5.045765 65.640511 97.179955
90.641786 17.717520 85.504208
52.851034 19.993821 94.010035
79.415247 22.668155 80.795834
19.411974 44.734785 96.428251
89.223091 82.648208 85.113817
49.728871 37.472233 88.398706
10.610153 35.176149 82.558542
56.402627 76.386197 89.032472
56.053654 36.728134 85.567802
87.401104 27.355154 98.856659
5.633196 61.305901 83.854726
40.287996 93.255855 81.941790
13.756332 87.623094 88.278551
71.409797 63.050087 91.219434
32.769898 7.242417 95.094659
74.911354 52.563117 98.656849
82.386812 69.536891 92.229261
14.114365 46.301848 91.578455
89.456984 6.807689 92.728037
53.295355 1.578721 91.513087
79.626515 50.455178 92.624548
25.974970 85.341016 80.512558
4.489979 49.740689 95.475828
20.669442 38.566764 99.546704
33.075548 92.945249 91.022559
42.195497 32.553190 88.459103
95.710727 45.319675 91.998931
45.233017 51.614925 95.807674
22.522164 30.966744 83.815012
26.247762 87.970023 82.508612
20.343775 21.572644 93.143190
14.097658 76.464493 98.675044
94.628579 40.989169 83.935132
33.388265 49.700202 86.911101
85.509093 91.213016 99.567670
63.029539 48.124520 92.827625
36.980699 80.183133 81.417723
68.860653 53.405515 84.410552
25.690552 13.982206 82.639933
6.066030 13.530547 92.621008
12.511337 12.128263 90.910933
37.363962 13.518254 91.862271
85.058443 51.112918 92.121156
58.239199 85.780089 97.745974
89.475976 42.254685 91.813190
87.685203 41.524392 92.187240
78.469342 64.104361 95.487026
62.305971 60.754912 87.532144
17.596797 33.419130 92.150871
23.784498 4.852292 88.224432
43.893072 62.105632 88.577834
68.734201 96.376659 88.978907
61.242746 8.537257 97.970146
17.859671 86.260302 88.480026
69.103379 6.495602 89.160374
10.112034 16.955375 96.855983
80.687085 97.191596 98.087491
64.411725 77.703897 94.626010
66.741034 44.524235 91.932832
72.268096 26.081351 90.065759
12.461116 59.007112 92.900840
19.245675 23.376648 90.268713
42.551587 23.589567 92.755747
26.882742 28.090290 83.142562
96.967302 95.015569 97.309919
88.301882 31.751780 94.467729
34.368777 22.274200 80.457571
35.122273 20.365545 91.262956
66.641501 37.844641 82.101271
10.803051 30.121883 82.755330
77.041924 68.393735 83.882379
81.420323 15.685483 94.614918
79.348335 39.282650 97.868701
36.431629 16.978582 92.985425
78.271036 58.323716 85.843860
94.944575 86.137126 90.451914
52.601985 64.183954 92.284466
31.878478 70.410397 92.923518
38.902239 87.978296 80.191761
65.137060 78.342686 93.678429
37.481783 22.193694 81.412386
58.523489 7.175755 82.988754
32.645999 43.986420 93.458396
69.538689 66.051338 86.921705
16.570630 14.939165 91.249698
34.207607 15.250273 98.108069
71.830505 24.042140 92.017680
46.617106 47.031053 95.192032
53.503227 78.465725 86.738693
18.192603 69.553890 92.619271
30.095063 18.683647 97.787169
98.984824 73.721210 93.076535
83.188708 42.807441 86.144098
95.590711 77.786344 80.530424
0.370139 97.843722 99.029439
65.199259 60.897130 97.868334
62.224657 69.103874 89.238460
97.878250 36.421914 96.001097
95.610344 14.289760 82.871923
62.287849 81.042054 89.456008
81.503088 1.614535 91.134746
88.834006 53.740614 89.820171
92.845301 70.017876 82.681284
58.753731 68.341934 87.942524
79.351156 93.544436 95.739345
58.075780 40.677759 96.378011
56.060699 98.998691 80.537326
32.041115 6.299346 97.760497
33.674719 3.239408 92.722106
26.818109 68.175997 92.581448
97.840376 72.969403 94.244648
68.043422 96.319624 89.802057
93.529180 81.269731 95.617114
7.018411 20.998781 83.457580
72.687131 51.223914 96.238154
17.288414 24.218769 90.529504
81.461702 25.258354 98.393141
84.820316 99.664554 93.711627
36.497545 54.057266 80.474967
46.002569 11.247014 83.016621
72.332663 97.620520 94.634442
95.368337 8.630727 86.124537
73.383902 70.206531 83.509234
86.391412 46.631699 86.300276
44.704150 14.200106 82.787714
21.161207 29.445373 88.671750
50.516191 25.081261 87.348520
15.212626 39.707302 90.470028
86.960560 24.423216 80.792168
6.673080 86.223637 87.434070
86.331634 84.008914 88.046886
87.874540 66.751542 84.743091
80.917943 17.437569 86.251909
97.786572 31.987368 92.787372
50.522696 7.856343 88.969374
51.988117 98.400196 95.309773
20.682780 99.937535 98.659484
10.315871 5.197423 82.080238
97.770300 76.348896 88.043120
80.392816 21.239369 93.270876
99.029388 29.346462 81.980267
51.533426 82.602171 82.288920
97.253503 18.088585 96.872544
25.814802 17.762392 89.056902
20.696754 36.560144 87.896452
62.154575 55.545635 94.915413
85.676001 24.847492 81.828955
92.068367 71.250919 90.810437
50.241831 33.947147 89.655273
70.475068 45.391811 86.305993
72.673154 80.887636 97.756581
72.276433 6.361479 85.593931
32.054001 41.060953 82.606687
84.843100 48.559148 87.534942
52.777310 45.443195 91.037296
70.761284 27.673592 98.361310
6.411322 33.412705 93.106453
48.313395 21.517868 89.704904
60.515292 78.879277 90.150434
34.120577 4.982482 95.326381
32.715689 92.941040 81.388034
61.956690 99.569641 92.566734
83.222205 50.082091 80.474421
14.107779 43.085103 96.466281
87.227262 4.738202 84.817364
59.027232 12.230641 97.433507
20.776233 33.321972 94.386951
70.361194 34.539881 87.325549
13.191028 34.076547 81.956070
2.597627 84.657032 95.655198
86.575534 17.111372 82.527137
30.339021 43.607307 89.347353
66.995425 14.887859 88.630602
39.382270 17.096775 80.268145
42.778938 49.880073 83.121175
82.477446 3.171912 95.336958
34.992154 27.440090 94.547061
60.294773 78.790073 85.967321
8.264463 87.240644 80.587505
66.370145 29.551478 98.780171
70.846718 78.270978 88.901137
34.907508 14.481162 97.432048
18.413501 48.634298 99.898826
83.880597 97.416413 92.606134
39.153804 42.952668 87.339207
20.518317 29.659435 93.050013
15.503279 46.390467 96.353883
48.328816 65.515801 92.671942
36.664700 84.026171 97.921289
49.799165 75.037490 81.711873
2.252769 3.532499 87.025837
36.984793 26.986783 81.132471
47.730860 29.347310 94.369452
49.261076 43.188401 87.464346
93.818876 46.842220 93.663430
75.075077 96.818271 91.216195
70.580935 54.024671 84.847586
11.799882 76.853148 94.924888
44.793978 65.029831 80.233814
57.114265 93.275930 90.669656
45.991726 66.543802 90.337622
85.724635 67.764043 96.907783
61.054823 5.918681 82.702626
57.038588 9.544750 93.310411
45.107438 43.151517 97.353666
72.427030 35.295090 87.279133
71.449768 63.596817 89.015524
0.689004 55.164485 80.654938
85.654375 56.923730 88.716781
23.227833 12.439821 89.460296
78.646356 43.053262 85.961323
54.019698 16.439594 88.427944
89.614725 20.390486 89.738127
89.297041 6.860631 87.725439
90.688110 93.504985 86.404376
95.516430 5.179346 99.660855
53.849593 98.950717 86.351723
0.366737 17.601186 91.313755
59.058180 86.824228 90.779447
53.442563 65.806528 87.291058
5.028261 1.050475 92.577831
62.381131 0.236868 88.827316
6.989829 77.580809 92.635561
24.903311 93.021418 80.887088
66.484086 76.576084 88.151144
97.208945 89.795509 94.684167
78.037641 69.608877 81.200328
94.725190 10.251131 90.641947
27.351880 56.376924 94.237149
89.434822 41.209451 84.795793
1.912289 24.167315 97.403625
75.026112 57.945585 90.627945
29.408803 99.075985 84.104352
45.903900 66.414149 81.229284
78.734247 37.059626 93.565921
1.575865 45.078906 90.752537
83.427954 95.616054 85.396883
26.772568 80.899532 81.903798
4.776868 59.555525 85.088212
79.981090 1.034102 91.493996
18.877996 28.269843 87.077466
14.881864 56.584878 94.885799
92.576809 11.347279 87.522889
73.527490 49.617183 97.451869
24.366232 98.621402 81.211863
84.128219 72.815361 96.269253
39.678726 89.445395 86.182604
32.597666 11.823319 97.721525
47.181810 74.588536 86.728811
47.011533 32.100366 91.159265
48.680030 65.534149 84.221755
30.645934 21.591636 96.559721
17.656464 55.384272 88.226431
77.161730 81.741716 93.965412
28.262249 9.272656 85.576594
79.477215 95.364237 93.892069
42.112658 84.553412 80.043366
31.835685 68.052055 89.203356
33.389821 47.058944 99.804785
59.059295 50.926500 83.789438
19.624904 7.787947 83.820453
46.216423 55.335425 83.738456
94.581422 55.200072 81.225654
54.478317 3.332382 95.585856
77.435579 88.999218 81.845028
62.241332 80.999251 87.750205
52.247848 5.261201 88.349007
11.590073 92.175344 97.003366
59.011243 83.735976 92.679326
78.250769 72.892125 89.852512
98.742958 91.923332 84.134894
60.971409 69.421658 91.013234
70.893439 48.443070 85.330002
35.378562 85.551493 84.397035
90.589807 63.653954 84.001284
49.125048 43.197606 85.422092
46.121157 97.945265 95.215726
90.227077 3.432916 85.283616
67.187558 55.369575 87.778050
19.066275 3.027339 92.047128
12.545609 75.509557 96.910585
8.372278 39.693445 90.246950
72.829104 86.978051 92.297815
63.081604 32.577394 83.216884
39.010354 17.973655 86.861683
98.475484 85.774325 84.448681
67.484764 14.786513 98.368050
3.881143 1.086344 99.610224
85.417542 16.792553 97.955724
0.373811 2.315995 98.647679
30.161594 10.301623 85.589390
91.536346 95.903584 87.185232
90.945027 16.211221 98.463286
26.436017 23.291172 96.680674
86.622028 45.668798 89.890173
64.432273 54.849743 91.296897
79.171445 66.941377 80.069272
28.976370 53.637611 99.734238
56.418097 6.262930 81.099061
81.959602 43.225891 83.837179
74.050926 13.541522 85.960137
80.422556 97.752971 92.028766
30.957618 50.270768 96.269208
89.944771 59.056036 93.659142
40.458205 39.451472 96.501987
82.106642 38.689676 90.096155
44.912604 77.147044 90.362884
39.279597 23.462509 85.002512
34.251989 95.006064 91.381620
48.109825 4.418269 93.710751
35.795684 6.156588 83.625121
27.458693 52.786780 88.050833
22.318216 38.748552 88.411151
45.978660 26.457669 99.962322
84.683748 47.699295 82.819014
41.486792 14.289405 89.624782
95.936897 30.055148 91.107111
99.024326 7.546153 83.683498
69.407062 33.205218 80.700854
85.032590 87.588847 93.471864
15.391546 50.203697 86.861422
82.704021 14.732461 91.960088
0.646857 95.963420 95.265095
94.267061 38.108727 93.136899
75.416034 44.492010 98.060430
90.991650 36.876002 82.899873
91.748824 21.044003 90.674362
46.783391 82.495436 98.222075
17.175005 79.348381 97.751820
72.443702 24.596891 89.648577
72.192218 12.452071 92.698394
42.130473 2.773515 95.871688
14.232172 7.494352 83.718918
3.386751 68.788704 93.007605
34.315780 29.209837 88.223107
43.636662 57.355951 89.823873
2.359803 38.143573 83.857513
90.448013 77.718197 99.791907
52.809153 21.854346 80.840800
78.724968 76.643995 99.388172
10.115658 2.498846 94.315005
99.098072 51.777154 81.847432
4.070249 2.947011 88.005919
52.931078 12.206847 90.951349
3.991573 70.220454 94.882957
91.936248 36.113057 80.239279
93.347763 33.089169 81.377173
57.683499 32.960298 85.550770
40.997935 41.303762 98.194212
34.152696 13.148595 87.658327
91.699835 22.645004 88.207705
9.442903 93.355838 87.347292
17.808913 83.754099 97.119125
18.735956 73.553484 87.968833
20.655485 25.143604 89.994091
35.061901 71.423222 80.974570
0.018030 47.682960 90.244112
67.851177 84.988012 89.530041
12.676124 60.909967 94.658313
14.689653 95.344749 81.355269
65.828701 55.263250 88.000860
66.085919 91.799719 92.301084
7.899764 29.902691 87.385297
97.629315 44.808474 81.334007
33.559845 47.040656 98.471929
7.394017 45.056627 95.187312
71.234321 24.694687 84.704849
70.247481 4.352119 92.926183
49.851921 94.061435 84.970007
29.891897 39.614639 85.355813
90.001160 91.459704 94.788953
82.781699 66.618198 95.370998
54.661618 55.865181 97.170267
56.548491 2.008542 80.638619
63.181005 17.465908 99.361487
16.386940 39.153627 88.486630
54.912512 60.426383 93.902490
2.583940 95.566872 92.652644
73.792299 48.492268 85.382389
53.048415 72.127996 87.565819
71.949330 92.350871 81.693754
55.773250 0.351515 84.727791
43.507971 93.596174 81.194551
81.640702 17.332056 80.935151
42.561165 34.894234 80.997537
96.208776 39.801641 81.427897
22.413260 59.896014 97.113734
71.188245 68.694735 81.239467
21.343351 25.579066 99.260848
66.744829 92.379602 87.953655
32.839835 28.060957 80.917074
69.880747 8.733023 89.933332
66.888050 90.837334 87.489789
34.246390 33.319062 82.465624
47.336957 1.978656 91.831722
52.669778 40.092478 92.235253
71.951168 98.673104 85.942523
9.165088 98.766022 98.099275
70.668964 31.439350 85.222917
13.461783 80.347535 86.747991
17.016632 47.857059 89.165253
95.929152 81.136429 94.091093
55.701538 57.928776 80.643697
36.179267 60.182573 90.327490
37.047785 38.160423 93.009301
80.422572 32.156918 99.465724
22.031357 52.133320 91.503542
26.587775 21.309614 97.491643
94.814800 95.114225 98.451472
72.693670 28.383391 81.014385
44.302004 54.792051 83.904713
59.747606 86.421500 97.900154
60.275170 52.003632 84.051497
10.676165 57.462240 92.452259
70.128273 78.010815 90.140449
20.287751 38.208654 92.083190
94.680013 79.583116 94.102986
29.660365 91.658688 84.582813
26.440135 77.419337 82.840451
32.532949 9.914925 85.041845
82.627738 77.540133 83.117612
15.426940 83.037758 81.046973
44.288008 1.323539 95.277764
26.423681 86.322852 95.983151
79.114291 56.995596 86.914730
62.680997 69.941302 82.694944
41.389648 52.345168 97.792011
61.423171 79.082573 87.380361
62.177986 17.130789 80.796553
66.093358 86.599586 94.443785
87.531086 56.517044 88.158535
32.578121 43.232780 90.504927
11.660997 33.732712 84.997213
98.295354 77.288007 93.832957
57.795827 73.778136 89.507657
40.998016 37.462777 86.400546
7.028875 99.237981 94.514159
56.851110 81.302549 97.413768
88.757927 83.151851 86.815264
69.655068 73.635789 96.547697
27.837462 6.283932 89.302353
2.350676 16.523271 81.484894
49.909573 67.852513 93.585571
40.352159 78.330168 95.428475
9.086960 48.520584 86.019818
9.446973 71.078797 89.583133
45.593634 8.322548 94.507486
72.987890 67.697313 95.646619
30.672307 93.148702 98.720658
58.359428 99.146786 81.159418
35.500199 25.573430 88.596065
3.434462 73.561770 96.055673
15.514748 46.275353 97.401695
4.577228 25.797550 94.232228
6.621110 25.443624 93.698836
80.025127 50.066349 89.684071
84.599264 54.897818 97.217651
12.663990 5.271835 87.960348
85.383965 76.173027 88.372573
34.995555 97.905316 86.719240
4.720814 4.686655 81.884103
7.037202 85.173449 92.462077
23.657610 58.239633 85.576430
82.921062 33.868062 86.876743
58.955544 90.179645 80.463263
35.921748 76.798386 83.265799
52.233741 29.604231 94.307205
12.879791 34.479153 82.182579
77.377831 76.352382 89.638589
6.025983 25.902958 98.168755
24.799837 6.324045 82.216436
42.259347 67.232445 96.646954
86.673791 29.802873 92.786026
84.246695 39.614437 98.714372
14.751800 85.396526 87.373072
24.156419 67.395720 82.334750
32.792436 68.263764 93.178504
71.651004 76.145899 86.367469
2.387001 11.376138 95.483755
68.479758 58.604859 83.463442
74.776267 74.002153 85.032287
15.561932 29.633780 81.243069
43.250466 94.565234 99.123247
19.751361 1.427390 84.285989
75.603479 6.966106 81.144075
32.607806 98.116388 85.460188
20.491110 87.315113 88.926815
34.742655 7.161555 85.839876
2.881813 78.529604 88.133381
60.254376 40.986721 87.377900
13.281514 8.291528 99.276020
60.429528 69.408985 98.611297
5.580019 72.747979 99.075551
30.048211 75.994962 88.832365
44.605842 6.477976 80.496224
48.260433 61.636559 97.511151
63.804606 9.824378 95.205135
6.697170 32.883921 97.053332
6.673702 10.817227 97.205250
8.420462 60.235172 83.967578
42.070950 42.438762 82.668311
9.482447 41.653949 98.027709
61.491480 19.133616 92.029132
40.593589 10.030239 83.401002
51.196692 53.600842 95.538647
86.939209 49.168875 84.418247
79.057770 2.789644 92.213708
19.782100 24.048449 82.280394
77.365983 5.785842 98.738020
47.811518 12.291849 92.942711
21.674902 61.526284 92.948287
43.349847 51.107218 96.457594
43.792709 10.091450 87.110550
29.274339 19.526223 87.009581
64.311144 4.342624 94.756520
55.580913 79.968198 87.181729
68.496007 22.005879 88.240202
58.880004 78.083046 88.907434
29.650222 34.505605 95.779816
43.885067 79.608143 81.086293
57.115767 76.859267 81.005426
85.060450 58.028848 86.324378
77.832847 56.105426 80.577850
29.519647 98.296416 83.450503
73.153069 89.528797 88.261254
57.982966 18.341927 94.791235
64.973282 48.903831 86.138703
92.902793 19.103574 90.877503
49.253560 3.373136 87.329392
16.081568 5.852475 85.769790
17.394349 18.282765 89.225511
21.427778 9.840756 97.928119
34.599456 13.712270 99.858062
82.105085 69.516804 90.706093
71.928357 68.329466 86.892735
33.441138 5.607718 97.063067
36.235731 19.374020 91.410139
8.027818 39.754266 93.976178
99.479877 5.012039 83.058010
48.988546 55.062235 92.765772
52.306394 89.603294 90.815523
18.859855 16.911821 82.513668
55.286385 86.033976 91.768413
59.943081 51.587039 93.207473
48.171610 38.147821 83.027051
22.649244 13.670897 83.697919
58.556883 82.294057 96.144337
52.416998 7.391250 95.601341
42.076895 10.247981 97.220200
71.956294 97.631382 98.505669
34.181222 76.651667 80.910479
1.316304 61.007396 84.020262
90.655319 62.036132 80.869141
10.569437 2.012900 93.048929
67.820216 88.311605 97.465185
60.398492 22.887246 96.887105
69.032565 84.065416 95.440142
6.332625 14.869251 80.802333
88.479176 0.487874 94.522472
45.437834 46.262669 87.874260
18.615959 19.774451 98.473292
66.951863 9.332929 93.340422
21.109229 86.715520 82.813107
55.561684 87.051827 93.405279
90.932654 77.232600 91.382480
36.614623 94.077929 81.851680
87.002443 96.649508 99.900952
61.355209 42.570655 91.926674
85.850823 81.237862 98.903138
54.319966 38.183910 81.139116
40.874730 17.107373 92.107884
10.783117 58.475651 83.422338
74.132945 51.480957 88.161490
68.874665 87.309018 86.612943
33.700900 8.871203 92.501864
41.286388 65.302291 96.033440
29.962788 20.059807 95.813828
6.017553 83.990955 90.979586
50.014268 84.141951 95.107101
33.466219 0.501092 94.990933
22.497480 90.973671 85.296376
54.554852 40.864633 94.475597
98.891805 28.915338 94.972086
99.621374 18.882978 81.417825
25.507335 9.413879 80.854794
59.764065 17.148857 82.560605
23.920907 98.755798 92.431681
15.397757 59.269752 98.658585
94.457513 11.016500 89.016303
57.147559 43.759225 83.688635
48.745056 55.219483 86.675061
94.332246 27.628748 83.284983
93.639232 49.944479 88.786300
87.531294 86.235630 86.856058
68.709699 56.390335 86.836910
25.450629 65.840943 94.040985
86.451061 60.849354 89.849003
23.995579 45.823531 88.106431
31.824245 3.573221 88.913244
66.272544 60.509598 96.687425
27.270135 95.387251 95.806159
2.833940 83.299176 87.316586
14.186668 2.985453 84.808444
67.774142 22.549815 84.586864
15.537356 33.981631 88.940588
26.264511 42.600076 99.843250
58.857629 44.457922 90.872094
8.349461 44.235372 94.734698
66.683129 21.949235 81.641722
95.746537 18.378233 91.032826
61.314984 73.375448 80.098057
12.171980 73.699749 93.636569
58.073367 60.468023 95.532354
68.794793 17.410777 87.086340
48.801528 92.123777 90.561889
29.216825 40.552610 90.185792
39.641298 13.243393 97.561401
48.765720 45.502663 88.051197
46.771496 26.085543 89.395336
17.222492 47.678800 86.587621
8.992570 71.433202 92.246611
85.369153 2.837973 95.530500
86.535682 87.648029 99.635283
63.947634 8.167359 82.279642
0.149682 93.473919 82.486209
67.108653 58.744608 94.689121
32.118392 33.636637 80.956998
24.613635 55.491792 87.105109
31.050422 36.405376 91.376137
91.446071 88.608963 94.845800
23.333365 56.174162 92.316121
57.185871 29.876051 87.938479
66.891546 3.050663 98.362494
81.037567 68.722250 92.274866
30.989460 88.166157 86.380177
20.595835 5.533646 98.672571
54.497271 12.100862 95.596220
64.263507 10.164568 94.639874
28.808809 81.409764 91.125654
84.701591 55.690204 97.341658
42.122724 23.477512 88.290378
92.048986 39.655612 97.798190
72.201423 87.546271 98.756472
65.785227 45.752364 82.786522
94.900769 25.330459 91.239498
3.619485 82.175128 82.397518
14.373665 25.572921 92.779709
23.163072 19.166105 88.195310
42.732300 33.292554 83.969130
61.045139 42.115466 93.789895
61.767418 35.388858 96.087217
68.270601 17.196446 80.603179
77.956796 91.285157 99.876045
35.482126 4.389761 83.229133
7.143876 56.172498 85.890621
56.223679 79.615503 89.275909
7.688785 58.918016 83.275711
56.928116 90.163893 86.716887
54.618275 42.382921 81.049767
47.621323 17.789936 88.127346
98.376092 3.984690 86.585973
94.967777 3.955662 90.295582
42.570473 58.686248 90.373458
48.375255 27.285913 92.002839
25.613195 48.273307 91.675748
21.050546 80.134132 93.921947
96.953524 93.726166 94.201929
47.538636 36.017362 81.407496
34.075929 97.365939 98.631861
74.894669 4.131015 93.555544
16.466028 38.542684 85.175738
90.345755 2.655401 89.712666
43.084906 76.057088 87.686592
75.053875 54.430701 93.569054
45.381343 14.051801 88.642654
32.452114 94.068478 95.089511
95.049650 91.000892 97.522753
45.488584 70.650725 96.190594
71.406695 17.003595 89.767273
70.235260 23.403750 83.863933
12.003494 10.426644 96.874346
95.581844 81.951311 98.046248
79.922110 61.082953 84.618482
63.561013 15.335726 81.964011
86.144550 88.795692 94.553421
4.431993 39.856277 99.703793
61.288027 95.831192 93.038544
55.508241 95.640367 89.964003
36.692997 45.431193 89.139603
91.675751 85.954651 91.275541
10.462189 5.594492 80.283960
20.694606 45.434370 86.992914
98.322999 31.272584 97.442953
43.455151 61.327218 80.371361
69.451244 3.490436 87.495404
85.682680 77.460283 82.438120
60.434950 14.730773 91.455800
81.093586 29.560412 83.652694
40.682773 46.320205 87.915231
18.516432 91.069829 85.748749
90.178783 64.136149 86.393530
99.118941 47.141503 86.180841
37.976385 15.619597 82.404284
27.659830 24.840484 89.725160
99.122832 98.092902 82.761184
80.902280 62.828098 84.216600
93.555342 75.332079 96.468706
34.851166 17.736361 99.119591
50.006242 93.161360 93.025237
77.724957 53.187043 80.607469
67.338059 33.960826 85.955492
4.738886 21.487003 89.426366
50.394128 49.312322 89.000605
43.950354 23.940425 94.338448
49.642699 0.941871 84.063043
33.257636 27.245150 83.985144
45.941053 60.259260 80.277119
21.409586 78.253272 90.371959
83.662086 92.885421 93.900852
1.264921 85.986454 89.673387
54.910885 77.132275 93.703937
38.388216 87.521356 92.779560
50.708172 71.196929 80.569759
40.332657 48.186677 99.954995
99.662899 48.610836 91.399762
95.827200 37.609282 86.494162
83.035575 70.166861 89.554708
66.007501 97.170392 86.209690
76.886365 77.392705 97.454002
21.925386 85.983160 98.133448
22.698482 88.068635 86.998078
0.286607 73.307490 80.244808
3.260776 79.065989 92.526086
92.343840 46.206577 91.027541
36.338588 6.362546 92.300402
54.532318 53.664217 97.488588
95.880031 44.202056 93.477277
87.040589 78.137909 80.836351
22.996119 19.586599 89.819922
19.591108 38.916081 92.731339
83.526038 92.944762 83.972163
7.308444 96.949370 91.198438
98.816563 70.069445 88.686708
3.225395 93.066462 91.430514
70.752117 81.649609 97.787740
90.828870 9.436559 88.016621
26.091894 52.874966 88.407436
47.899854 35.992797 89.591802
71.617933 27.039469 86.201052
72.622957 89.239325 98.459230
32.862870 90.009061 90.515256
99.122856 93.586829 95.663513
71.961614 2.888997 99.056271
52.937518 12.230819 92.712903
31.796800 49.627920 84.216367
54.166853 57.826137 83.131891
11.349603 68.725401 99.030626
64.242405 13.237819 82.583055
27.498006 13.897030 91.200175
92.483606 5.947031 89.822217
51.765458 51.822294 99.854951
8.988718 52.722298 97.501152
88.842995 2.071243 98.709083
36.951516 3.345847 91.423945
19.900950 54.981592 96.811566
86.007180 82.868892 85.948976
59.451049 19.958844 96.775994
99.272305 53.865644 95.896871
8.603949 53.102373 94.436559
97.556442 17.410877 95.786017
68.919590 58.341581 97.835298
67.143336 29.100422 83.379083
83.408945 30.630965 90.955499
70.178535 68.199159 97.215998
24.655988 32.699281 82.123177
83.369537 58.074303 88.464870
39.574260 67.722384 89.062659
67.512880 25.515932 86.785046
60.969041 6.594858 97.756286
56.446044 80.871435 94.572387
41.598549 54.716638 84.242018
55.326029 19.062229 86.613210
17.481145 25.240827 83.683326
84.407194 72.780461 85.083232
54.762778 14.920310 99.236222
50.108863 74.376586 96.460298
89.105798 91.449844 91.121747
86.421529 58.108419 83.869363
98.222599 87.570277 81.650376
5.214392 25.908630 94.401526
9.570889 94.952603 87.316780
39.792782 62.960232 91.415192
13.815397 63.626252 91.948546
83.652406 28.712781 95.204718
48.035723 84.894876 99.365858
62.450929 1.537985 90.825704
44.458943 70.172612 91.729838
37.294811 97.763413 83.206152
68.957173 13.134356 97.592467
15.121356 56.761025 90.325884
83.279835 89.120474 91.700791
31.665211 12.461645 97.579046
78.691720 50.301076 81.164158
9.249883 24.192691 92.459526
81.020626 99.129564 97.482039
72.370496 94.927640 99.022760
39.534577 49.257554 93.269607
48.365441 77.029284 95.370154
30.593872 52.416169 84.558485
65.845937 71.250336 96.754745
90.979158 83.637293 93.322768
38.859388 24.933002 93.847137
56.381560 6.570056 88.719845
1.965557 57.261276 93.108350
32.669723 1.003033 83.986198
35.182199 95.986801 98.839293
20.961897 67.416312 86.927963
49.816426 97.879599 80.181186
60.535643 46.336577 86.613367
90.930743 21.418795 83.168033
36.060784 52.436317 86.300527
51.768170 81.951940 80.111988
28.263281 30.104483 98.166470
24.351503 60.338618 82.127948
55.310218 21.845009 94.106550
46.004590 53.485807 85.634614
15.152717 44.696914 88.689406
75.476457 77.667878 99.868094
54.747601 66.303323 97.742643
83.957453 65.632243 86.937453
72.901961 68.565439 84.991235
65.641070 11.026265 88.398240
82.216458 71.352782 92.617601
58.610663 13.109102 98.532828
81.710270 58.471081 90.845883
49.357076 89.694691 82.598019
66.658172 67.439314 98.145883
78.771540 35.379564 94.372467
58.645833 3.206801 90.947670
42.091488 66.935968 89.778194
8.559407 93.182848 86.228937
18.577722 49.254067 84.866161
94.400233 71.172028 92.256532
98.093620 70.970952 96.901396
42.679890 3.078879 91.425342
73.008628 82.649209 92.114498
80.963422 51.541497 99.241754
12.352656 18.354484 80.179457
56.919315 75.415314 92.863610
39.019570 66.226377 99.838498
42.199480 56.581273 80.199555
91.868369 38.792307 81.031766
7.155233 62.192293 97.506435
60.569612 19.762143 84.027505
29.848396 9.936156 85.915919
54.353793 35.453340 92.150061
75.567007 40.292768 85.092481
14.825619 54.185592 96.160133
40.632438 27.704189 96.497896
42.429768 87.296948 93.376552
36.782506 9.706982 80.376061
6.580558 94.583748 93.969941
43.792245 71.988520 87.918617
19.930979 45.335843 93.651581
29.589476 64.317966 91.119617
82.603748 63.345551 95.458853
75.394439 48.518981 80.701068
35.910349 19.840458 81.102895
64.071997 93.437969 95.271789
9.969498 27.987302 91.138725
36.460213 62.952061 98.124334
57.096640 46.916782 94.171535
64.131825 37.943771 87.617643
48.357673 19.437694 94.215912
61.376535 13.630632 85.202447
18.075678 50.642733 96.230611
73.921333 65.527942 81.659648
33.563339 15.307622 97.220324
25.239186 70.146650 82.744131
1.375520 8.345618 85.504724
86.587634 16.275750 81.253928
28.682661 37.679652 99.325461
11.184592 86.716248 81.824768
23.751003 57.246997 87.129657
17.292396 48.881260 89.476589
17.094792 27.604289 84.022203
60.552659 7.449132 90.629448
64.328030 53.629965 93.266358
60.587535 85.872341 82.769814
20.784749 96.708670 85.861142
71.781775 35.680013 81.800078
38.768902 76.761426 90.129089
14.414269 72.040952 90.874607
5.433030 40.817620 95.119042
92.317635 17.438550 83.812926
22.414733 3.933455 88.078694
55.357316 5.792135 90.802101
96.096370 23.297236 90.837403
67.502740 74.024811 85.790584
47.118185 42.572930 89.977781
15.722516 22.653375 96.781135
23.422154 25.123268 81.922197
30.697230 51.992694 85.503480
67.203901 78.514607 90.460485
15.049418 17.310979 84.457352
54.147429 37.631011 86.394996
88.140394 53.032786 97.600286
58.346004 16.098429 98.434765
23.112485 85.892958 95.655563
7.176078 61.404246 83.959899
19.633674 6.879025 85.399968
81.724433 22.024498 86.091549
42.376821 5.748950 81.687387
78.479009 62.168474 86.996945
23.347222 31.559411 81.109171
72.003048 37.165613 96.502619
48.845376 93.745813 90.027998
88.351163 88.517623 83.784229
0.997508 77.284867 94.638382
95.367725 6.928073 92.397928
12.633318 20.637101 97.918055
61.735411 97.861710 83.129260
38.931709 29.475067 99.546327
81.047795 23.246191 87.114864
51.074473 69.025894 81.296863
31.953414 10.178839 83.434665
7.991936 96.429133 93.971078
92.784297 23.072237 99.333391
0.710199 88.506591 91.397318
64.530247 74.234886 97.360424
22.941732 1.726530 82.506403
6.496189 88.873376 90.678355
98.595917 42.668413 82.029087
50.993034 96.865457 88.613746
22.094004 8.029476 84.550834
98.631688 69.431614 97.526423
80.892244 65.959846 81.288880
71.836868 50.515805 94.082474
59.520729 97.505568 82.708493
49.873376 31.752260 82.347776
16.279008 69.837205 90.369644
82.791234 26.471317 90.521231
8.193861 22.798457 96.806924
94.758526 17.481291 92.539636
55.836478 35.426377 82.021336
59.937198 23.171925 92.020774
68.534701 90.176204 84.781335
31.638934 52.313342 93.334950
62.718590 87.495110 94.172096
22.814868 35.833107 85.338066
70.676139 78.681268 80.055863
77.475689 13.710156 98.932329
37.036950 32.902895 85.710122
17.846664 82.023053 92.179219
33.364780 17.193656 81.974592
4.582810 57.405486 95.005104
2.476570 41.203722 94.491551
95.206851 48.955869 82.258841
65.574174 79.584450 95.367878
51.530942 92.760729 95.377093
92.040133 68.134449 82.266076
72.009437 81.551646 81.252043
20.334404 62.730808 80.208316
91.988772 58.608747 93.098155
78.424617 56.034954 89.576850
40.055645 72.077664 80.887334
11.442192 84.198101 94.654555
93.458983 39.853368 89.807948
91.488275 92.485475 84.691956
75.830607 6.194233 80.015862
32.903991 73.896792 95.304675
24.319294 20.598121 91.244099
53.265973 40.653664 81.946098
16.898367 69.424937 87.946034
11.280335 52.169105 95.356014
43.508050 72.648401 85.741540
14.162502 17.164799 95.025319
90.615593 52.214272 81.643050
8.012763 2.395451 94.964700
18.476550 84.443785 95.298070
26.543583 95.589532 83.808578
32.285242 3.967273 85.799749
44.307522 78.331493 83.336186
63.260343 52.623565 96.358378
92.908438 20.588940 89.776149
30.114326 80.816265 99.843999
13.380969 63.756318 92.530926
89.971174 38.335827 86.577404
20.743805 99.959198 99.059972
25.243231 80.852075 81.646273
20.588578 65.765941 87.217761
13.909550 24.263423 90.735008
75.053070 69.339893 82.922057
43.418322 75.307308 89.665168
0.727025 47.949143 93.674212
90.208714 6.029612 84.918971
31.022170 45.468640 86.715346
90.092669 8.840885 89.925822
34.192004 0.997634 95.601542
96.665450 12.578869 87.373231
77.569347 65.550107 87.815333
78.530638 88.992488 80.028883
71.823663 24.959023 93.430707
68.680979 11.316579 98.975329
86.478927 64.077332 97.927158
86.984109 54.693632 94.277144
54.036881 35.452937 98.397090
42.477287 49.303547 82.345946
3.698745 45.592378 96.422177
72.412258 30.229497 81.351757
56.659418 34.856337 83.394804
18.795827 91.931681 88.262848
5.316490 20.765062 81.256794
61.917279 0.635218 83.529225
0.842648 5.965195 80.874188
7.678190 77.814611 81.980269
30.690991 73.512177 82.030417
3.410401 76.126275 82.805442
92.202033 61.294803 85.283650
75.910436 2.541220 81.102506
58.101674 65.055577 88.493167
7.247215 24.676937 89.462109
21.207594 9.653964 80.129690
44.502212 50.021208 97.548170
40.462187 59.513133 99.861176
9.738129 41.053526 92.340052
65.755200 76.456900 97.038082
15.404199 71.251806 92.393543
87.953643 80.004567 80.167070
13.218552 63.829124 82.675186
67.804499 12.096562 92.974359
14.833974 78.895791 88.967287
15.982073 60.613777 85.653132
5.167352 82.215583 86.927771
76.645599 60.206618 85.585130
35.666212 74.761615 98.181626
18.504110 64.286940 87.621384
56.046729 97.227602 90.118068
86.894722 63.870670 80.273534
86.722129 88.593541 84.131187
27.077818 87.066388 96.440423
4.870593 89.896295 82.194016
53.168623 2.927234 82.837998
88.568100 14.742081 80.566250
85.024023 79.179664 86.274462
57.667359 55.173862 89.673427
80.674418 61.424994 81.659555
97.295311 21.365160 84.699908
14.193365 1.713109 84.702741
95.987535 3.221124 84.442255
74.056405 65.648379 84.598421
24.159713 70.573475 89.494372
51.603068 46.553119 81.510671
29.522419 50.431214 84.986741
44.464153 1.654083 83.813449
97.261015 47.537452 92.829338
85.579343 24.044825 82.476944
57.237632 77.504126 98.994775
57.560799 67.580522 87.657916
53.412186 72.060646 80.455100
69.562697 31.906452 96.146376
6.074158 37.230634 82.131191
85.686397 93.116037 98.402043
27.261336 64.262438 84.543461
12.707126 0.318884 99.373052
66.594989 12.091420 94.344132
68.875565 18.333213 93.511804
41.431481 62.445723 91.142980
36.039921 17.474106 81.058212
10.490363 66.775745 95.774799
95.140543 17.214187 84.283813
15.951942 51.825100 92.341658
75.378863 30.425135 99.040205
59.952757 59.429808 95.338847
80.720883 63.629129 99.997597
95.523765 38.305785 95.581786
65.960092 89.753062 96.020282
36.949515 89.879462 83.064487
77.900409 77.841813 84.885438
91.889565 82.103838 81.504130
36.315813 55.717574 98.495062
61.632646 84.659254 85.488044
65.238113 14.136052 98.553879
12.511341 70.667699 97.543587
56.102224 98.004620 99.862571
69.450637 85.311626 98.547953
64.051901 94.334560 85.816496
87.023845 42.708783 87.324911
15.098283 7.751791 81.386196
16.162020 53.299027 95.305412
90.007286 65.171865 91.548195
61.354788 75.179982 89.261279
89.086773 36.179549 80.587847
65.444405 85.647405 96.230953
57.245028 65.428827 87.951662
96.536618 77.488587 95.377909
74.606525 81.378917 98.147753
43.209403 37.049029 97.850462
58.655536 9.332165 96.667933
22.011205 97.001213 96.505871
93.696558 51.599383 98.827577
0.998064 37.846398 89.760212
43.739230 64.561472 81.789575
64.227697 13.882501 82.117693
53.893590 68.287062 94.579062
91.063340 68.163426 84.100779
56.678970 2.158675 88.255492
63.263228 30.135565 93.740335
28.147807 91.377568 81.368158
4.735676 75.969732 95.744946
72.260171 95.651816 89.043319
59.741421 13.935068 84.502154
81.675272 63.914171 98.923095
40.660935 42.270393 83.115630
88.694592 38.273957 94.530114
92.808505 41.057457 86.806999
19.428219 42.649488 82.785173
64.212373 67.924303 94.036425
34.494911 24.632410 82.149199
8.566517 42.042479 88.076343
52.189720 34.600366 85.204722
59.051750 8.136673 88.002880
69.814631 78.988963 94.092869
19.186546 43.696077 94.987877
23.395318 82.744450 82.571334
28.916863 68.808152 92.197410
32.169631 18.004290 88.815943
5.186108 99.248627 92.771298
2.664416 60.330570 98.793353
23.209352 74.013059 85.537832
77.754578 78.338802 97.659304
84.501543 39.621064 88.556557
24.270578 57.572146 96.373819
85.136992 59.947214 88.261956
94.738337 13.319222 92.157522
49.248304 83.555488 97.077828
58.044835 66.215585 96.378210
54.513322 26.568863 97.460066
10.576284 31.266215 90.242459
44.257131 93.275467 88.969985
89.377538 29.385213 82.481526
0.249617 81.676890 84.936736
87.159071 8.107369 87.098122
30.418649 41.031000 83.111763
1.562969 56.510540 95.408894
83.732713 14.441788 97.397515
87.369171 7.781015 83.954910
37.026699 69.865506 90.841244
21.529141 50.203229 80.151257
65.998562 10.420465 91.229153
69.877422 12.593290 82.228792
24.996632 83.601722 82.615883
47.708225 53.180397 99.287150
59.609861 37.167513 80.394815
22.908508 14.229228 96.717878
62.231078 99.643363 89.488621
40.305249 98.154852 84.719606
44.283729 45.262529 87.860919
90.143216 6.406555 96.910569
99.329238 87.801846 80.052968
30.941188 18.539666 87.070018
57.549007 41.130975 88.472775
28.603411 15.022974 98.558716
9.349297 43.970191 91.289492
44.106781 45.173068 86.510097
88.943118 19.644465 84.912574
91.238111 35.754998 81.522081
77.544515 89.764427 92.525347
12.288442 46.820425 91.294361
1.215219 39.365640 95.334299
32.637681 14.833603 97.483656
57.242686 15.382914 88.528293
83.354156 17.928731 85.492577
44.051876 19.419409 87.077901
90.678913 15.737985 91.819748
24.915057 43.901375 87.920870
83.796092 24.033465 93.130694
18.515456 62.045161 92.563401
63.824678 14.048748 92.915853
6.643999 9.000295 84.743816
57.483424 87.873370 96.570374
48.252039 79.770331 88.396886
88.680141 49.336366 98.206662
34.490499 22.061179 92.163109
6.207703 41.890447 93.623245
17.252336 25.169960 93.878779
66.026438 24.451887 83.717774
9.961721 14.035357 82.837422
98.352660 71.395070 86.929565
12.078561 71.719882 90.562707
46.565648 0.689183 81.307245
0.305511 13.614711 86.718661
84.443033 74.590250 93.464558
68.126641 98.004522 82.752652
68.787972 67.789218 89.703402
25.002209 85.547964 87.076673
64.702147 59.944877 89.766788
81.854828 43.741117 97.636991
3.485571 90.531778 87.317006
51.993996 12.595062 82.146953
52.976788 32.623965 99.330975
78.262125 27.464500 84.221021
61.778653 96.152666 80.814211
52.023823 73.364077 83.791314
88.465543 53.000825 86.244665
41.796357 63.292921 81.695806
93.405670 50.524712 98.257757
35.534746 36.119599 84.391488
2.919818 66.618900 88.032011
17.425894 40.348602 80.913045
13.072257 59.809726 94.438070
90.378189 55.144108 80.031219
77.596988 0.107575 88.587295
0.347756 31.583059 92.223311
48.961767 67.723560 83.469662
31.010745 83.210037 87.212048
69.366637 34.077500 82.232442
97.262544 35.745652 97.939833
52.448056 87.495128 85.889966
19.434854 14.383948 99.962916
36.598636 69.096605 99.615685
39.550635 18.574748 97.750895
10.854470 63.687573 85.133822
96.781261 57.391532 82.034180
21.675988 99.186663 83.307781
14.198188 14.249483 82.334633
50.103838 73.635337 96.247614
49.606412 70.126480 96.490100
80.016321 7.477560 93.433832
54.535398 53.385865 83.552280
27.595429 99.076278 91.908106
86.463290 0.914320 96.401290
2.138658 21.317864 80.169486
77.641946 30.202102 85.465489
7.261907 95.308914 84.513277
50.032665 97.126528 97.355727
5.334431 50.162968 85.078744
66.830089 23.284894 86.121737
65.382013 0.956633 83.520206
96.583032 20.704460 88.363671
19.183517 75.568740 80.660292
83.861720 0.847956 84.784204
80.437429 83.048503 85.125355
9.177175 96.103764 90.273966
74.209653 6.592977 94.244244
29.712438 61.389998 90.379654
30.246205 22.308914 90.196255
19.179814 41.412329 82.516238
92.932157 74.282204 86.608081
96.193418 24.738649 98.338920
71.938784 78.329616 81.113702
29.761996 91.479109 80.370140
26.760285 74.819809 89.108822
62.416134 47.485553 83.007880
67.903343 43.164863 95.129413
73.285344 23.151597 99.581315
99.986289 28.951526 98.518686
61.737969 18.522511 97.824908
10.190218 63.740771 83.711163
8.875822 25.961465 93.802658
88.442875 65.920592 89.840848
43.020284 42.057479 92.077014
67.956012 79.430821 99.949070
71.589091 51.236974 95.546129
5.876019 81.550033 85.645139
99.539578 53.454505 96.696190
56.965113 72.132095 91.033013
89.382039 59.475131 84.574687
6.110388 59.690247 86.451896
53.796195 9.369000 99.770647
65.395209 22.419324 89.970659
94.775889 81.553389 81.107369
31.435075 17.279493 85.093474
3.151887 22.101270 88.601163
20.988324 6.498361 91.478442
73.857925 99.217283 97.830104
47.489479 44.742398 96.844784
39.630219 92.902729 96.969856
35.478899 75.070727 97.898285
2.972974 76.460220 89.497782
67.891919 60.043148 98.141724
42.720020 40.107300 81.135666
57.898912 14.020216 91.531524
58.143291 45.705399 86.055679
22.389505 53.533982 86.167632
10.837027 76.681424 86.681036
53.903452 82.440402 85.345649
72.536601 85.851416 86.732268
55.134718 4.042214 82.621696
67.936256 38.690494 97.656775
40.704991 1.197297 80.117585
32.885215 72.960111 91.052499
73.623607 31.740852 85.197350
78.393093 12.466359 93.192743
81.693668 75.306816 97.466985
9.053231 8.027277 90.736070
5.127002 15.964599 87.420600
62.845520 68.394774 92.180623
44.378029 1.952205 99.009000
59.020318 56.433342 96.491793
31.963543 3.451313 91.975224
36.922971 30.875658 93.938381
44.346616 80.001715 93.972208
70.637785 63.163051 90.439215
4.994601 64.087668 88.668928
69.892566 9.576781 93.390747
91.596890 88.109402 91.380498
48.738358 77.156139 92.395421
8.805950 87.682620 84.967840
8.759015 65.654714 97.189025
85.165745 6.284269 92.518682
24.984038 14.621513 88.742816
62.057753 8.258275 82.295401
93.353280 93.059264 82.736231
4.202691 88.765032 89.652597
51.755675 84.923642 89.046854
49.601737 57.013146 93.906523
66.688042 55.472655 94.000817
17.177691 1.219203 89.542075
8.779011 62.172591 97.268901
63.479450 94.688720 87.800266
75.602187 23.166883 88.202755
17.911201 96.148123 98.512721
69.680278 64.867700 97.920307
89.710061 41.790906 86.746138
32.561663 9.896624 91.558018
65.725264 19.635704 86.643426
51.952913 53.266911 93.073218
81.515181 48.870853 81.494269
31.847079 96.191521 92.365908
63.399191 28.241977 81.183771
90.581682 53.226941 97.369899
66.504614 36.052542 88.519553
85.084156 87.953566 90.019904
73.745997 80.632425 91.258627
53.434365 57.303675 81.786328
48.987557 62.551161 85.443062
80.742869 75.578932 83.827233
25.078816 6.603854 97.187815
9.326303 63.835025 85.030065
65.300809 80.175569 90.527288
14.763208 74.546032 98.329228
20.502095 31.947262 92.355096
2.978559 10.158895 96.684742
40.736751 94.853674 94.948644
0.869281 96.222411 87.054703
66.498473 14.110622 80.960858
59.186656 75.494795 99.026384
28.136399 21.497249 90.942579
13.970705 61.106982 80.855421
2.299290 41.957948 98.492594
21.914935 5.742529 91.966539
3.359341 14.918507 81.916758
92.620971 7.508114 90.870668
58.149164 65.692790 90.167141
37.838606 88.659870 94.498074
8.834080 68.436597 82.012868
46.225144 25.897903 89.572795
30.069437 79.877342 93.176438
62.854531 5.207963 98.020541
61.362617 80.273586 80.090849
69.606942 35.942040 86.585550
16.746804 90.877328 99.279327
11.795875 95.888523 96.724683
66.315142 99.417813 93.381275
83.827361 88.532575 91.799306
7.646799 68.972583 92.314846
60.383302 48.329902 83.658556
25.528759 71.956176 86.211595
29.694933 2.421777 87.553457
91.318933 39.505407 92.363990
59.932564 5.991307 83.992472
